5.108333110809326 -0.24596816301345825 14.518731117248535
5.108333110809326 -0.5013506412506104 14.518731117248535
5.108333110809326 -0.7567330598831177 14.518730163574219
5.108333110809326 -1.0121155977249146 14.518731117248535
4.976447582244873 -1.0121155977249146 14.460918426513672
4.991101264953613 -0.7567330598831177 14.467342376708984
5.005755424499512 -0.5013506412506104 14.473766326904297
5.02040958404541 -0.24596816301345825 14.480189323425293
5.03506326675415 0.009414315223693848 14.486613273620605
5.049716949462891 0.26479679346084595 14.493037223815918
5.064371109008789 0.520179271697998 14.499460220336914
5.0790252685546875 0.7755616903305054 14.505884170532227
5.093679428100586 1.0309442281723022 14.512308120727539
4.961793899536133 -1.0121155977249146 14.454495429992676
4.961793422698975 -0.7567330598831177 14.454496383666992
4.961793422698975 -0.5013506412506104 14.454495429992676
4.961793422698975 -0.24596816301345825 14.454495429992676
4.961793422698975 0.009414315223693848 14.454495429992676
4.961793422698975 0.26479679346084595 14.454495429992676
4.961793422698975 0.520179271697998 14.454495429992676
4.961793422698975 0.7755616903305054 14.454496383666992
4.961793899536133 1.0309442281723022 14.454495429992676
3.760925769805908 1.4952290058135986 17.592565536499023
3.865361452102661 1.4952290058135986 17.35431671142578
3.969797134399414 1.4952290058135986 17.11606788635254
4.074233055114746 1.4952290058135986 16.877819061279297
4.17866849899292 1.4952290058135986 16.639570236206055
4.283104419708252 1.4952290058135986 16.401321411132812
4.387539863586426 1.4952290058135986 16.163070678710938
4.491975784301758 1.4952290058135986 15.924823760986328
4.59641170501709 1.4952290058135986 15.686574935913086
4.700847148895264 1.4952290058135986 15.448326110839844
4.805283069610596 1.4952290058135986 15.210077285766602
4.9097185134887695 1.4952290058135986 14.97182846069336
5.014154434204102 1.4952290058135986 14.7335786819458
5.118590354919434 1.4952290058135986 14.495329856872559
5.223025798797607 1.4952290058135986 14.257081031799316
5.3274617195129395 1.4952290058135986 14.01883316040039
5.431897163391113 1.4952290058135986 13.780583381652832
5.293498992919922 1.4952290058135986 13.719917297363281
5.19720458984375 1.4952290058135986 13.961734771728516
5.100910186767578 1.4952290058135986 14.20355224609375
5.004615306854248 1.4952290058135986 14.445369720458984
4.908320426940918 1.4952290058135986 14.687187194824219
4.812026023864746 1.4952290058135986 14.929004669189453
4.715731143951416 1.4952290058135986 15.170822143554688
4.619436740875244 1.4952290058135986 15.412639617919922
4.523141860961914 1.4952290058135986 15.654457092285156
4.426847457885742 1.4952290058135986 15.89627456665039
4.330552577972412 1.4952290058135986 16.138092041015625
4.234257698059082 1.4952290058135986 16.37990951538086
4.13796329498291 1.4952290058135986 16.621726989746094
4.041668891906738 1.4952290058135986 16.863544464111328
3.945374011993408 1.4952290058135986 17.105361938476562
3.8490793704986572 1.4952290058135986 17.347179412841797
3.7527847290039062 1.4952290058135986 17.58899688720703
5.28535795211792 1.4952290058135986 13.716348648071289
5.180922508239746 1.4952290058135986 13.954598426818848
5.076487064361572 1.4952290058135986 14.192846298217773
4.972050666809082 1.4952290058135986 14.431095123291016
4.867615222930908 1.4952290058135986 14.669343948364258
4.763179302215576 1.4952290058135986 14.907593727111816
4.658743858337402 1.4952290058135986 15.145841598510742
4.55430793762207 1.4952290058135986 15.384090423583984
4.449872016906738 1.4952290058135986 15.622340202331543
4.3454365730285645 1.4952290058135986 15.860589027404785
4.241001129150391 1.4952290058135986 16.098838806152344
4.136565208435059 1.4952290058135986 16.337087631225586
4.032129287719727 1.4952290058135986 16.575336456298828
3.9276936054229736 1.4952290058135986 16.81358528137207
3.8232579231262207 1.4952290058135986 17.051834106445312
3.7188220024108887 1.4952290058135986 17.290082931518555
3.6143863201141357 1.4952290058135986 17.528331756591797
3.6241209506988525 -1.2674980163574219 17.534591674804688
3.738291025161743 -1.2674980163574219 17.302602767944336
3.852461338043213 -1.2674980163574219 17.070613861083984
3.9666314125061035 -1.2674980163574219 16.838623046875
4.080801486968994 -1.2674980163574219 16.60663414001465
4.194971561431885 -1.2674980163574219 16.374645233154297
4.309142112731934 -1.2674980163574219 16.142656326293945
4.423312187194824 -1.2674980163574219 15.910667419433594
4.537482261657715 -1.2674980163574219 15.678677558898926
4.6516523361206055 -1.2674980163574219 15.446687698364258
4.765822887420654 -1.2674980163574219 15.214698791503906
4.879992485046387 -1.2674980163574219 14.982709884643555
4.9941630363464355 -1.2674980163574219 14.750720024108887
5.403115749359131 -1.016340970993042 13.483939170837402
5.41643762588501 -0.7651839852333069 13.489778518676758
5.4297590255737305 -0.5140269994735718 13.49561882019043
5.443080902099609 -0.26287001371383667 13.501458168029785
5.456402778625488 -0.011713027954101562 13.50729751586914
5.469724655151367 0.23944401741027832 13.513136863708496
5.483046054840088 0.49060097336769104 13.518976211547852
5.496367454528809 0.7417579889297485 13.524815559387207
5.5096893310546875 0.9929150342941284 13.530654907226562
5.523011207580566 1.2440719604492188 13.536495208740234
3.5232725143432617 1.2440719604492188 17.77242088317871
3.5365941524505615 0.9929150342941284 17.77825927734375
3.5499160289764404 0.7417579889297485 17.784099578857422
3.5632376670837402 0.49060097336769104 17.78993797302246
3.576559543609619 0.23944401741027832 17.7957763671875
3.589881420135498 -0.011713027954101562 17.801616668701172
3.603203058242798 -0.26287001371383667 17.807456970214844
3.6165246963500977 -0.5140269994735718 17.813295364379883
3.6298465728759766 -0.7651839852333069 17.819135665893555
3.6431684494018555 -1.016340970993042 17.824974060058594
3.656489849090576 -1.2674980163574219 17.8308162689209
3.881071090698242 -1.2674980163574219 17.941837310791016
4.105652332305908 -1.2674980163574219 18.052858352661133
4.330233573913574 -1.2674980163574219 18.16387939453125
4.55481481552124 -1.2674980163574219 18.274900436401367
4.779396057128906 -1.2674980163574219 18.385921478271484
5.003977298736572 -1.2674980163574219 18.4969425201416
5.003977298736572 -1.016340970993042 18.4969425201416
5.003977298736572 -0.7651839852333069 18.4969425201416
5.003977298736572 -0.5140269994735718 18.4969425201416
5.003977298736572 -0.26287001371383667 18.4969425201416
5.003977298736572 -0.011713027954101562 18.4969425201416
5.003977298736572 0.23944401741027832 18.4969425201416
5.003977298736572 0.49060097336769104 18.4969425201416
5.003977298736572 0.7417579889297485 18.4969425201416
5.003977298736572 0.9929150342941284 18.4969425201416
5.003977298736572 1.2440719604492188 18.4969425201416
5.003977298736572 1.4952290058135986 18.4969425201416
4.891686916351318 1.2650017738342285 18.441431045532227
4.779396057128906 1.0347744226455688 18.385921478271484
4.667105674743652 0.8045473098754883 18.330411911010742
4.55481481552124 0.5743199586868286 18.274900436401367
4.442523956298828 0.34409278631210327 18.219388961791992
4.330233573913574 0.11386549472808838 18.16387939453125
4.21794319152832 -0.11636179685592651 18.108369827270508
4.105652332305908 -0.34658899903297424 18.052858352661133
3.993361473083496 -0.5768162608146667 17.997346878051758
3.881071090698242 -0.8070434927940369 17.941837310791016
3.768780469894409 -1.0372707843780518 17.886327743530273
4.21794319152832 -0.11636179685592651 18.108367919921875
4.779396057128906 1.4952290058135986 18.385921478271484
4.55481481552124 1.4952290058135986 18.274900436401367
4.330233573913574 1.4952290058135986 18.16387939453125
4.105652332305908 1.4952290058135986 18.052858352661133
3.881071090698242 1.4952290058135986 17.941837310791016
3.656489849090576 1.4952290058135986 17.8308162689209
3.656489849090576 1.2440719604492188 17.8308162689209
3.656489849090576 0.9929150342941284 17.8308162689209
3.656489849090576 0.7417579889297485 17.8308162689209
3.656489849090576 0.49060097336769104 17.8308162689209
3.656489849090576 0.23944401741027832 17.8308162689209
3.656489849090576 -0.011713027954101562 17.8308162689209
3.656489849090576 -0.26287001371383667 17.8308162689209
3.656489849090576 -0.5140269994735718 17.8308162689209
3.656489849090576 -0.7651839852333069 17.8308162689209
3.656489849090576 -1.016340970993042 17.8308162689209
3.7273948192596436 1.4952290058135986 17.6873836517334
3.9519760608673096 1.4952290058135986 17.798404693603516
4.1765570640563965 1.4952290058135986 17.909425735473633
4.4011383056640625 1.4952290058135986 18.02044677734375
4.6257195472717285 1.4952290058135986 18.1314697265625
4.8503007888793945 1.4952290058135986 18.242490768432617
5.0748820304870605 1.4952290058135986 18.353511810302734
4.962591171264648 1.2650017738342285 18.298002243041992
4.8503007888793945 1.0347744226455688 18.242490768432617
4.738009929656982 0.8045473098754883 18.186979293823242
4.6257195472717285 0.5743199586868286 18.1314697265625
4.513429164886475 0.34409278631210327 18.075958251953125
4.4011383056640625 0.11386549472808838 18.02044677734375
4.288847923278809 -0.11636179685592651 17.964937210083008
4.1765570640563965 -0.34658899903297424 17.909425735473633
4.064266681671143 -0.5768162608146667 17.85391616821289
3.9519760608673096 -0.8070434927940369 17.798404693603516
3.8396854400634766 -1.0372707843780518 17.74289321899414
3.7273948192596436 -1.2674980163574219 17.6873836517334
3.7273948192596436 -1.016340970993042 17.6873836517334
3.7273948192596436 -0.7651839852333069 17.6873836517334
3.7273948192596436 -0.5140269994735718 17.6873836517334
3.7273948192596436 -0.26287001371383667 17.6873836517334
3.7273948192596436 -0.011713027954101562 17.6873836517334
3.7273948192596436 0.23944401741027832 17.6873836517334
3.7273948192596436 0.49060097336769104 17.6873836517334
3.7273948192596436 0.7417579889297485 17.6873836517334
3.7273948192596436 0.9929150342941284 17.6873836517334
3.7273948192596436 1.2440719604492188 17.6873836517334
5.0748820304870605 1.2440719604492188 18.353511810302734
5.0748820304870605 0.9929150342941284 18.353511810302734
5.0748820304870605 0.7417579889297485 18.353511810302734
5.0748820304870605 0.49060097336769104 18.353511810302734
5.0748820304870605 0.23944401741027832 18.353511810302734
5.0748820304870605 -0.011713027954101562 18.353511810302734
5.0748820304870605 -0.26287001371383667 18.353511810302734
5.0748820304870605 -0.5140269994735718 18.353511810302734
5.0748820304870605 -0.7651839852333069 18.353511810302734
5.0748820304870605 -1.016340970993042 18.353511810302734
5.0748820304870605 -1.2674980163574219 18.353511810302734
4.8503007888793945 -1.2674980163574219 18.242490768432617
4.6257195472717285 -1.2674980163574219 18.1314697265625
4.4011383056640625 -1.2674980163574219 18.02044677734375
4.1765570640563965 -1.2674980163574219 17.909425735473633
3.9519760608673096 -1.2674980163574219 17.798404693603516
4.8384833335876465 1.4952290058135986 18.266395568847656
4.602084636688232 1.4952290058135986 18.179279327392578
4.365685939788818 1.4952290058135986 18.0921630859375
4.129287242889404 1.4952290058135986 18.005048751831055
3.8928885459899902 1.4952290058135986 17.917932510375977
3.9401586055755615 -1.2674980163574219 17.822311401367188
4.1529221534729 -1.2674980163574219 17.957237243652344
4.365685939788818 -1.2674980163574219 18.0921630859375
4.578449726104736 -1.2674980163574219 18.227088928222656
4.791213512420654 -1.2674980163574219 18.362016677856445
5.068436145782471 -1.016340970993042 18.36655044555664
5.061990261077881 -0.7651839852333069 18.37959098815918
5.055544376373291 -0.5140269994735718 18.392627716064453
5.049098491668701 -0.26287001371383667 18.405668258666992
5.042652606964111 -0.011713027954101562 18.41870880126953
5.0362067222595215 0.23944401741027832 18.431747436523438
5.029760837554932 0.49060097336769104 18.444786071777344
5.023314952850342 0.7417579889297485 18.45782470703125
5.016869068145752 0.9929150342941284 18.47086524963379
5.010423183441162 1.2440719604492188 18.483903884887695
3.7209489345550537 1.2440719604492188 17.700422286987305
3.714503049850464 0.9929150342941284 17.713462829589844
3.708057165145874 0.7417579889297485 17.72650146484375
3.701611042022705 0.49060097336769104 17.739540100097656
3.6951651573181152 0.23944401741027832 17.752580642700195
3.6887192726135254 -0.011713027954101562 17.7656192779541
3.6822733879089355 -0.26287001371383667 17.77865982055664
3.6758275032043457 -0.5140269994735718 17.791698455810547
3.669381618499756 -0.7651839852333069 17.804737091064453
3.662935733795166 -1.016340970993042 17.817777633666992
11.500384330749512 -1.2674980163574219 7.461653232574463
11.732528686523438 -1.2674980163574219 7.621832370758057
11.96467399597168 -1.2674980163574219 7.782011032104492
12.196819305419922 -1.2674980163574219 7.942190170288086
12.428964614868164 -1.2674980163574219 8.10236930847168
12.661109924316406 -1.2674980163574219 8.262548446655273
12.893254280090332 -1.2674980163574219 8.422727584838867
12.893254280090332 -1.016340970993042 8.422727584838867
12.893254280090332 -0.7651839852333069 8.422727584838867
12.893254280090332 -0.5140269994735718 8.422727584838867
12.893253326416016 -0.26287001371383667 8.422727584838867
12.893254280090332 -0.011713027954101562 8.422727584838867
12.893254280090332 0.23944401741027832 8.422727584838867
12.893253326416016 0.49060097336769104 8.422727584838867
12.893254280090332 0.7417579889297485 8.422727584838867
12.893254280090332 0.9929150342941284 8.422727584838867
12.893254280090332 1.2440719604492188 8.422727584838867
12.893254280090332 1.4952290058135986 8.422727584838867
12.777181625366211 1.2650017738342285 8.34263801574707
12.661109924316406 1.0347744226455688 8.262548446655273
12.545037269592285 0.8045473098754883 8.182458877563477
12.428964614868164 0.5743199586868286 8.10236930847168
12.312891006469727 0.34409278631210327 8.022279739379883
12.196819305419922 0.11386549472808838 7.942190170288086
12.0807466506958 -0.11636179685592651 7.862100601196289
11.96467399597168 -0.34658899903297424 7.782011032104492
11.848601341247559 -0.5768162608146667 7.7019219398498535
11.732528686523438 -0.8070434927940369 7.621832370758057
11.616456985473633 -1.0372707843780518 7.54174280166626
12.080747604370117 -0.11636179685592651 7.862100601196289
12.312891960144043 0.34409278631210327 8.022279739379883
12.661109924316406 1.4952290058135986 8.262548446655273
12.428964614868164 1.4952290058135986 8.10236930847168
12.196819305419922 1.4952290058135986 7.942190170288086
11.96467399597168 1.4952290058135986 7.782011032104492
11.732528686523438 1.4952290058135986 7.621832370758057
11.500384330749512 1.4952290058135986 7.461653232574463
11.500384330749512 1.2440719604492188 7.461652755737305
11.500384330749512 0.9929150342941284 7.461653232574463
11.500383377075195 0.7417579889297485 7.461652755737305
11.500384330749512 0.49060097336769104 7.461653232574463
11.500384330749512 0.23944401741027832 7.461652755737305
11.500384330749512 -0.011713027954101562 7.461652755737305
11.500384330749512 -0.26287001371383667 7.461653232574463
11.500383377075195 -0.5140269994735718 7.461652755737305
11.500384330749512 -0.7651839852333069 7.461653232574463
11.500384330749512 -1.016340970993042 7.461652755737305
11.591252326965332 1.4952290058135986 7.329959869384766
11.823397636413574 1.4952290058135986 7.490138530731201
12.0555419921875 1.4952290058135986 7.650318145751953
12.287687301635742 1.4952290058135986 7.810496807098389
12.519831657409668 1.4952290058135986 7.970675468444824
12.75197696685791 1.4952290058135986 8.130854606628418
12.984122276306152 1.4952290058135986 8.291033744812012
12.868049621582031 1.2650017738342285 8.210944175720215
12.75197696685791 1.0347744226455688 8.130854606628418
12.635904312133789 0.8045473098754883 8.050765037536621
12.519831657409668 0.5743199586868286 7.970675468444824
12.403759956359863 0.34409278631210327 7.890585899353027
12.287687301635742 0.11386549472808838 7.810496807098389
12.171614646911621 -0.11636179685592651 7.730407238006592
12.0555419921875 -0.34658899903297424 7.650318145751953
11.939470291137695 -0.5768162608146667 7.570228576660156
11.823397636413574 -0.8070434927940369 7.490138530731201
11.707324981689453 -1.0372707843780518 7.4100494384765625
11.591252326965332 -1.2674980163574219 7.329959869384766
11.591252326965332 -1.016340970993042 7.329959869384766
11.591252326965332 -0.7651839852333069 7.329959869384766
11.591251373291016 -0.5140269994735718 7.329959869384766
11.591252326965332 -0.26287001371383667 7.329959869384766
11.591252326965332 -0.011713027954101562 7.329959869384766
11.591252326965332 0.23944401741027832 7.329959869384766
11.591252326965332 0.49060097336769104 7.329959869384766
11.591251373291016 0.7417579889297485 7.329959869384766
11.591252326965332 0.9929150342941284 7.329959869384766
11.591252326965332 1.2440719604492188 7.329959869384766
12.984122276306152 1.2440719604492188 8.291033744812012
12.984122276306152 0.9929150342941284 8.291033744812012
12.984122276306152 0.7417579889297485 8.291033744812012
12.984121322631836 0.49060097336769104 8.291033744812012
12.984122276306152 0.23944401741027832 8.291033744812012
12.984122276306152 -0.011713027954101562 8.291033744812012
12.984121322631836 -0.26287001371383667 8.291033744812012
12.984122276306152 -0.5140269994735718 8.291033744812012
12.984122276306152 -0.7651839852333069 8.291033744812012
12.984122276306152 -1.016340970993042 8.291033744812012
12.984122276306152 -1.2674980163574219 8.291033744812012
12.75197696685791 -1.2674980163574219 8.130854606628418
12.519831657409668 -1.2674980163574219 7.970675468444824
12.287687301635742 -1.2674980163574219 7.810496807098389
12.0555419921875 -1.2674980163574219 7.650318145751953
11.823397636413574 -1.2674980163574219 7.490138530731201
12.736832618713379 1.4952290058135986 8.152803421020508
12.489542961120605 1.4952290058135986 8.014573097229004
12.242253303527832 1.4952290058135986 7.876343727111816
11.994963645935059 1.4952290058135986 7.7381134033203125
11.747673988342285 1.4952290058135986 7.599883079528809
11.808252334594727 -1.2674980163574219 7.512087821960449
12.025253295898438 -1.2674980163574219 7.694215774536133
12.242253303527832 -1.2674980163574219 7.876343727111816
12.459253311157227 -1.2674980163574219 8.0584716796875
12.676254272460938 -1.2674980163574219 8.240599632263184
12.975861549377441 -1.016340970993042 8.303006172180176
12.96760082244873 -0.7651839852333069 8.314977645874023
12.95934009552002 -0.5140269994735718 8.326950073242188
12.951078414916992 -0.26287001371383667 8.338922500610352
12.942818641662598 -0.011713027954101562 8.350894927978516
12.934557914733887 0.23944401741027832 8.362866401672363
12.92629623413086 0.49060097336769104 8.374838829040527
12.918036460876465 0.7417579889297485 8.386811256408691
12.909775733947754 0.9929150342941284 8.398783683776855
12.901515007019043 1.2440719604492188 8.410755157470703
11.582991600036621 1.2440719604492188 7.34193229675293
11.57473087310791 0.9929150342941284 7.3539042472839355
11.566469192504883 0.7417579889297485 7.365876197814941
11.558209419250488 0.49060097336769104 7.377848148345947
11.549948692321777 0.23944401741027832 7.389820098876953
11.541687965393066 -0.011713027954101562 7.401792526245117
11.533427238464355 -0.26287001371383667 7.413764953613281
11.525165557861328 -0.5140269994735718 7.425736427307129
11.516905784606934 -0.7651839852333069 7.437708854675293
11.508645057678223 -1.016340970993042 7.449680805206299
-5.483123302459717 -1.2674981355667114 8.819390296936035
-5.556802749633789 -1.0250306129455566 8.787559509277344
-5.630482196807861 -0.782563328742981 8.755728721618652
-5.704161643981934 -0.5400959253311157 8.723897933959961
-5.777841567993164 -0.2976285219192505 8.69206714630127
-5.851521015167236 -0.055161118507385254 8.660236358642578
-5.925200462341309 0.18730628490447998 8.628405570983887
-5.998879909515381 0.4297736883163452 8.596574783325195
-6.072559356689453 0.6722410917282104 8.564743995666504
-6.146239280700684 0.9147085547447205 8.532913208007812
-6.219918727874756 1.157175898551941 8.501082420349121
-5.974320411682129 1.157175898551941 8.607185363769531
-5.728721618652344 1.157175898551941 8.713287353515625
-5.483123302459717 1.157175898551941 8.819390296936035
-5.483123302459717 0.8877676725387573 8.819390296936035
-5.483123302459717 0.6183594465255737 8.819390296936035
-5.483123302459717 0.34895119071006775 8.819390296936035
-5.483123302459717 0.07954299449920654 8.819390296936035
-5.483123302459717 -0.18986523151397705 8.819390296936035
-5.483123302459717 -0.45927348732948303 8.819390296936035
-5.483123302459717 -0.7286816835403442 8.819390296936035
-5.483123302459717 -0.9980899095535278 8.819390296936035
-5.728721618652344 -1.2674981355667114 8.713287353515625
-5.974320411682129 -1.2674981355667114 8.607185363769531
-6.219918727874756 -1.2674981355667114 8.501082420349121
-6.219918727874756 -0.9980899095535278 8.501082420349121
-6.219918727874756 -0.7286816835403442 8.501082420349121
-6.219919204711914 -0.45927348732948303 8.501082420349121
-6.219918727874756 -0.18986523151397705 8.501082420349121
-6.219918727874756 0.07954299449920654 8.501082420349121
-6.219919204711914 0.34895119071006775 8.501082420349121
-6.219918727874756 0.6183594465255737 8.501082420349121
-6.219918727874756 0.8877676725387573 8.501082420349121
-6.251645565032959 1.157175898551941 8.574522018432617
-6.251645565032959 0.8877676725387573 8.574522018432617
-6.251645565032959 0.6183594465255737 8.574522018432617
-6.251645565032959 0.34895119071006775 8.574522018432617
-6.251645565032959 0.07954299449920654 8.574522018432617
-6.251645565032959 -0.18986523151397705 8.574522018432617
-6.251645565032959 -0.45927348732948303 8.574522018432617
-6.251645565032959 -0.7286816835403442 8.574522018432617
-6.251645565032959 -0.9980899095535278 8.574522018432617
-6.251645565032959 -1.2674981355667114 8.574522018432617
-6.006047248840332 -1.2674981355667114 8.680624961853027
-5.760448932647705 -1.2674981355667114 8.786726951599121
-5.514850616455078 -1.2674981355667114 8.892829895019531
-5.58853006362915 -1.0250306129455566 8.86099910736084
-5.662209510803223 -0.782563328742981 8.829168319702148
-5.735888957977295 -0.5400959253311157 8.797337532043457
-5.809568405151367 -0.2976285219192505 8.765506744384766
-5.883248329162598 -0.055161118507385254 8.733675956726074
-5.956927299499512 0.18730628490447998 8.701845169067383
-6.030607223510742 0.4297736883163452 8.670014381408691
-6.1042866706848145 0.6722410917282104 8.63818359375
-6.177966117858887 0.9147085547447205 8.606352806091309
-5.514850616455078 1.157175898551941 8.892829895019531
-5.760448932647705 1.157175898551941 8.786726951599121
-6.006047248840332 1.157175898551941 8.680624961853027
-5.514850616455078 -0.9980899095535278 8.892829895019531
-5.514850616455078 -0.7286816835403442 8.892829895019531
-5.514850616455078 -0.45927348732948303 8.892829895019531
-5.514850616455078 -0.18986523151397705 8.892829895019531
-5.514850616455078 0.07954299449920654 8.892829895019531
-5.514850616455078 0.34895119071006775 8.892829895019531
-5.514850616455078 0.6183594465255737 8.892829895019531
-5.514850616455078 0.8877676725387573 8.892829895019531
-6.248120307922363 -0.9980899095535278 8.566362380981445
-6.244595050811768 -0.7286816835403442 8.558201789855957
-6.241069793701172 -0.45927348732948303 8.550042152404785
-6.237545013427734 -0.18986523151397705 8.541881561279297
-6.2340192794799805 0.07954299449920654 8.533721923828125
-6.230494499206543 0.34895119071006775 8.525562286376953
-6.226969242095947 0.6183594465255737 8.517402648925781
-6.223443984985352 0.8877676725387573 8.509242057800293
-5.995471477508545 1.157175898551941 8.656145095825195
-5.739297389984131 1.157175898551941 8.737767219543457
-5.511325359344482 0.8877676725387573 8.884669303894043
-5.507800102233887 0.6183594465255737 8.876509666442871
-5.504274845123291 0.34895119071006775 8.8683500289917
-5.500749588012695 0.07954299449920654 8.860190391540527
-5.4972243309021 -0.18986523151397705 8.852029800415039
-5.493699073791504 -0.45927348732948303 8.843870162963867
-5.490173816680908 -0.7286816835403442 8.835710525512695
-5.4866485595703125 -0.9980899095535278 8.827549934387207
-5.749873161315918 -1.2674981355667114 8.762247085571289
-5.984896183013916 -1.2674981355667114 8.631665229797363
-5.480178356170654 -1.2674980163574219 8.820663452148438
-5.483123779296875 -1.2674980163574219 8.819391250610352
-5.483123779296875 -1.016340970993042 8.819391250610352
-5.483123779296875 -0.7651839852333069 8.819391250610352
-5.483123779296875 -0.5140269994735718 8.819391250610352
-5.483123779296875 -0.26287001371383667 8.819391250610352
-5.483123779296875 -0.011713027954101562 8.819391250610352
-5.483123779296875 0.23944401741027832 8.819391250610352
-5.483123779296875 0.49060097336769104 8.819391250610352
-5.483123779296875 0.7417579889297485 8.819391250610352
-5.483123779296875 0.9929150342941284 8.819391250610352
-5.483123779296875 1.2440719604492188 8.819391250610352
-5.483123779296875 1.4952290058135986 8.819391250610352
-5.482855796813965 1.2440719604492188 8.819507598876953
-5.482588291168213 0.9929150342941284 8.819622993469238
-5.482320785522461 0.7417579889297485 8.819738388061523
-5.482052803039551 0.49060097336769104 8.819853782653809
-5.481784820556641 0.23944401741027832 8.819969177246094
-5.4815168380737305 -0.011713027954101562 8.820085525512695
-5.4812493324279785 -0.26287001371383667 8.82020092010498
-5.480981826782227 -0.5140269994735718 8.820316314697266
-5.480713844299316 -0.7651839852333069 8.820432662963867
-5.4804463386535645 -1.016340970993042 8.820547103881836
-5.480178356170654 1.4952290058135986 8.820663452148438
-5.480178356170654 1.2440719604492188 8.820663452148438
-5.480178356170654 0.9929150342941284 8.820663452148438
-5.480178356170654 0.7417579889297485 8.820663452148438
-5.480178356170654 0.49060097336769104 8.820663452148438
-5.480178356170654 0.23944401741027832 8.820663452148438
-5.480178356170654 -0.011713027954101562 8.820663452148438
-5.480178356170654 -0.26287001371383667 8.820663452148438
-5.480178356170654 -0.5140269994735718 8.820663452148438
-5.480178356170654 -0.7651839852333069 8.820663452148438
-5.480178356170654 -1.016340970993042 8.820663452148438
-5.483123779296875 1.157175898551941 8.819391250610352
-5.728722095489502 1.157175898551941 8.713289260864258
-5.974320411682129 1.157175898551941 8.607186317443848
-6.219918727874756 1.157175898551941 8.501083374023438
-6.219918727874756 1.4952290058135986 8.501083374023438
-5.974320411682129 1.3825446367263794 8.607186317443848
-5.728722095489502 1.2698602676391602 8.713289260864258
-5.974320411682129 1.4952290058135986 8.607186317443848
-5.728722095489502 1.4952290058135986 8.713289260864258
-6.219918727874756 -1.2674980163574219 8.501083374023438
-6.454929351806641 -1.2674980163574219 8.399555206298828
-6.689939975738525 -1.2674980163574219 8.298027038574219
-6.92495059967041 -1.2674980163574219 8.196497917175293
-7.159960746765137 -1.2674980163574219 8.094969749450684
-7.394970893859863 -1.2674980163574219 7.993441104888916
-7.629981994628906 -1.2674980163574219 7.891912937164307
-7.864992141723633 -1.2674980163574219 7.790384292602539
-8.100003242492676 -1.2674980163574219 7.68885612487793
-8.335013389587402 -1.2674980163574219 7.587327480316162
-8.335013389587402 -1.016340970993042 7.587327480316162
-8.335013389587402 -0.7651839852333069 7.587327480316162
-8.335013389587402 -0.5140269994735718 7.587327480316162
-8.335013389587402 -0.26287001371383667 7.58732795715332
-8.335013389587402 -0.011713027954101562 7.587327480316162
-8.335013389587402 0.23944401741027832 7.587327480316162
-8.335013389587402 0.49060097336769104 7.58732795715332
-8.335013389587402 0.7417579889297485 7.587327480316162
-8.335013389587402 0.9929150342941284 7.587327480316162
-8.335013389587402 1.2440719604492188 7.587327480316162
-8.335013389587402 1.4952290058135986 7.587327480316162
-8.183935165405273 1.29789137840271 7.652595520019531
-8.032856941223145 1.1005537509918213 7.717864036560059
-7.881778717041016 0.9032161235809326 7.783132553100586
-7.730700492858887 0.7058783769607544 7.848400115966797
-7.579622268676758 0.5085407495498657 7.913668632507324
-7.428544044494629 0.31120312213897705 7.978937149047852
-7.2774658203125 0.11386549472808838 8.044205665588379
-7.126387596130371 -0.08347213268280029 8.109474182128906
-6.975309371948242 -0.28080981969833374 8.174741744995117
-6.824231147766113 -0.4781474769115448 8.240010261535645
-6.673153400421143 -0.6754850149154663 8.305278778076172
-6.522075176239014 -0.8728227019309998 8.3705472946167
-6.370996475219727 -1.0701603889465332 8.43581485748291
-8.100003242492676 1.4952290058135986 7.68885612487793
-7.864992141723633 1.4952290058135986 7.790384292602539
-7.629981994628906 1.4952290058135986 7.891912937164307
-7.394970893859863 1.4952290058135986 7.993441104888916
-7.159960746765137 1.4952290058135986 8.094969749450684
-6.92495059967041 1.4952290058135986 8.196497917175293
-6.689939975738525 1.4952290058135986 8.298027038574219
-6.454929351806641 1.4952290058135986 8.399555206298828
-6.219918727874756 1.2440719604492188 8.501083374023438
-6.219918727874756 0.9929150342941284 8.501083374023438
-6.219918727874756 0.7417579889297485 8.501083374023438
-6.219918727874756 0.49060097336769104 8.501083374023438
-6.219918727874756 0.23944401741027832 8.501083374023438
-6.219918727874756 -0.011713027954101562 8.501083374023438
-6.219918727874756 -0.26287001371383667 8.501083374023438
-6.219918727874756 -0.5140269994735718 8.501083374023438
-6.219918727874756 -0.7651839852333069 8.501083374023438
-6.219918727874756 -1.016340970993042 8.501083374023438
-6.2833733558654785 1.4952290058135986 8.64796257019043
-6.518383979797363 1.4952290058135986 8.54643440246582
-6.753394603729248 1.4952290058135986 8.444905281066895
-6.988405227661133 1.4952290058135986 8.343377113342285
-7.223415374755859 1.4952290058135986 8.241848945617676
-7.458425521850586 1.4952290058135986 8.140320777893066
-7.693436622619629 1.4952290058135986 8.03879165649414
-7.9284467697143555 1.4952290058135986 7.937263488769531
-8.163457870483398 1.4952290058135986 7.835734844207764
-8.398468017578125 1.4952290058135986 7.734206676483154
-8.247389793395996 1.29789137840271 7.799474716186523
-8.096311569213867 1.1005537509918213 7.864743232727051
-7.945233345031738 0.9032161235809326 7.930011749267578
-7.794155120849609 0.7058783769607544 7.995279312133789
-7.6430768966674805 0.5085407495498657 8.060547828674316
-7.491998672485352 0.31120312213897705 8.125816345214844
-7.340920448303223 0.11386549472808838 8.191084861755371
-7.189842700958252 -0.08347213268280029 8.256353378295898
-7.038763999938965 -0.28080981969833374 8.32162094116211
-6.887686252593994 -0.4781474769115448 8.386889457702637
-6.736608028411865 -0.6754850149154663 8.452157974243164
-6.585529327392578 -0.8728227019309998 8.517426490783691
-6.434451580047607 -1.0701603889465332 8.582694053649902
-6.2833733558654785 -1.2674980163574219 8.64796257019043
-6.2833733558654785 -1.016340970993042 8.64796257019043
-6.28337287902832 -0.7651839852333069 8.64796257019043
-6.2833733558654785 -0.5140269994735718 8.64796257019043
-6.2833733558654785 -0.26287001371383667 8.64796257019043
-6.2833733558654785 -0.011713027954101562 8.64796257019043
-6.2833733558654785 0.23944401741027832 8.64796257019043
-6.2833733558654785 0.49060097336769104 8.64796257019043
-6.2833733558654785 0.7417579889297485 8.64796257019043
-6.28337287902832 0.9929150342941284 8.64796257019043
-6.2833733558654785 1.2440719604492188 8.64796257019043
-8.398468017578125 1.2440719604492188 7.734206676483154
-8.398468017578125 0.9929150342941284 7.734206676483154
-8.398468017578125 0.7417579889297485 7.734206199645996
-8.398468017578125 0.49060097336769104 7.734206199645996
-8.398468017578125 0.23944401741027832 7.734206199645996
-8.398468017578125 -0.011713027954101562 7.734206199645996
-8.398468017578125 -0.26287001371383667 7.734206199645996
-8.398468017578125 -0.5140269994735718 7.734206199645996
-8.398468017578125 -0.7651839852333069 7.734206676483154
-8.398468017578125 -1.016340970993042 7.734206676483154
-8.398468017578125 -1.2674980163574219 7.734206676483154
-8.163457870483398 -1.2674980163574219 7.835734844207764
-7.9284467697143555 -1.2674980163574219 7.937263488769531
-7.693436622619629 -1.2674980163574219 8.03879165649414
-7.458425521850586 -1.2674980163574219 8.140320777893066
-7.223415374755859 -1.2674980163574219 8.241848945617676
-6.988405227661133 -1.2674980163574219 8.343377113342285
-6.753394603729248 -1.2674980163574219 8.444905281066895
-6.518383979797363 -1.2674980163574219 8.54643440246582
-5.5465779304504395 1.4952290058135986 8.966270446777344
-5.792176246643066 1.4952290058135986 8.86016845703125
-6.037775039672852 1.4952290058135986 8.75406551361084
-6.037775039672852 1.3825446367263794 8.75406551361084
-5.792176246643066 1.2698602676391602 8.86016845703125
-5.5465779304504395 1.157175898551941 8.966270446777344
-6.2833733558654785 1.157175898551941 8.64796257019043
-6.037775039672852 1.157175898551941 8.75406551361084
-5.792176246643066 1.157175898551941 8.86016845703125
-5.543632507324219 1.4952290058135986 8.967543601989746
-5.5463104248046875 1.2440719604492188 8.966385841369629
-5.546042442321777 0.9929150342941284 8.96650218963623
-5.545774936676025 0.7417579889297485 8.966617584228516
-5.545506477355957 0.49060097336769104 8.966733932495117
-5.545238971710205 0.23944401741027832 8.966849327087402
-5.544971466064453 -0.011713027954101562 8.966964721679688
-5.544703483581543 -0.26287001371383667 8.967081069946289
-5.544435501098633 -0.5140269994735718 8.967196464538574
-5.544167995452881 -0.7651839852333069 8.96731185913086
-5.543900012969971 -1.016340970993042 8.967428207397461
-5.543632507324219 -1.2674980163574219 8.967543601989746
-5.543632507324219 -1.016340970993042 8.967543601989746
-5.543632507324219 -0.7651839852333069 8.967543601989746
-5.543632507324219 -0.5140269994735718 8.967543601989746
-5.543632507324219 -0.26287001371383667 8.967543601989746
-5.543632507324219 -0.011713027954101562 8.967543601989746
-5.543632507324219 0.23944401741027832 8.967543601989746
-5.543632507324219 0.49060097336769104 8.967543601989746
-5.543632507324219 0.7417579889297485 8.967543601989746
-5.543632507324219 0.9929150342941284 8.967543601989746
-5.543632507324219 1.2440719604492188 8.967543601989746
-5.5465779304504395 1.2440719604492188 8.966270446777344
-5.5465779304504395 0.9929150342941284 8.966270446777344
-5.5465779304504395 0.7417579889297485 8.966270446777344
-5.5465779304504395 0.49060097336769104 8.966270446777344
-5.5465779304504395 0.23944401741027832 8.966270446777344
-5.5465779304504395 -0.011713027954101562 8.966270446777344
-5.5465779304504395 -0.26287001371383667 8.966270446777344
-5.5465779304504395 -0.5140269994735718 8.966270446777344
-5.5465779304504395 -0.7651839852333069 8.966270446777344
-5.5465779304504395 -1.016340970993042 8.966270446777344
-5.5465779304504395 -1.2674980163574219 8.966270446777344
-6.219918727874756 -0.9980897903442383 8.501083374023438
-6.219918727874756 -0.7286815643310547 8.501083374023438
-6.219919204711914 -0.4592733681201935 8.501083374023438
-6.219918727874756 -0.18986517190933228 8.501083374023438
-6.219918727874756 0.07954305410385132 8.501083374023438
-6.219919204711914 0.3489512503147125 8.501083374023438
-6.219918727874756 0.6183595061302185 8.501083374023438
-6.219918727874756 0.8877676725387573 8.501083374023438
-6.276322841644287 0.8877676725387573 8.631643295288086
-6.269272327423096 0.6183595061302185 8.61532211303711
-6.2622222900390625 0.3489512503147125 8.599002838134766
-6.255171298980713 0.07954305410385132 8.582683563232422
-6.2481207847595215 -0.18986517190933228 8.566363334655762
-6.241070747375488 -0.4592733681201935 8.550043106079102
-6.234019756317139 -0.7286815643310547 8.533722877502441
-6.226969242095947 -0.9980897903442383 8.517403602600098
-6.2833733558654785 0.8877676725387573 8.64796257019043
-6.2833733558654785 0.6183595061302185 8.64796257019043
-6.283373832702637 0.3489512503147125 8.64796257019043
-6.2833733558654785 0.07954305410385132 8.64796257019043
-6.2833733558654785 -0.18986517190933228 8.64796257019043
-6.283373832702637 -0.4592733681201935 8.64796257019043
-6.2833733558654785 -0.7286815643310547 8.64796257019043
-6.2833733558654785 -0.9980897903442383 8.64796257019043
-5.771024703979492 1.157175898551941 8.811208724975586
-5.995471954345703 1.157175898551941 8.656146049499512
-5.483123779296875 0.8877676725387573 8.819391250610352
-5.483123779296875 0.6183595061302185 8.819391250610352
-5.483123779296875 0.3489512503147125 8.819391250610352
-5.483123779296875 0.07954305410385132 8.819391250610352
-5.483123779296875 -0.18986517190933228 8.819391250610352
-5.483123779296875 -0.4592733681201935 8.819391250610352
-5.483123779296875 -0.7286815643310547 8.819391250610352
-5.483123779296875 -0.9980897903442383 8.819391250610352
-5.539527893066406 -0.9980897903442383 8.949951171875
-5.532476902008057 -0.7286815643310547 8.93363094329834
-5.525426387786865 -0.4592733681201935 8.91731071472168
-5.518376350402832 -0.18986517190933228 8.90099048614502
-5.511325836181641 0.07954305410385132 8.884671211242676
-5.504275321960449 0.3489512503147125 8.868350982666016
-5.497224807739258 0.6183595061302185 8.852031707763672
-5.490174293518066 0.8877676725387573 8.835711479187012
-5.5465779304504395 -0.9980897903442383 8.966270446777344
-5.5465779304504395 -0.7286815643310547 8.966270446777344
-5.5465779304504395 -0.4592733681201935 8.966270446777344
-5.5465779304504395 -0.18986517190933228 8.966270446777344
-5.5465779304504395 0.07954305410385132 8.966270446777344
-5.5465779304504395 0.3489512503147125 8.966270446777344
-5.5465779304504395 0.6183595061302185 8.966270446777344
-5.5465779304504395 0.8877676725387573 8.966270446777344
-5.718080997467041 1.4952290058135986 8.717885971069336
-5.955984115600586 1.4952290058135986 8.615107536315918
-6.193886756896973 1.4952290058135986 8.5123291015625
-6.431789875030518 1.4952290058135986 8.409551620483398
-6.6696929931640625 1.4952290058135986 8.306774139404297
-6.907595634460449 1.4952290058135986 8.203995704650879
-7.145498752593994 1.4952290058135986 8.101217269897461
-7.383401393890381 1.4952290058135986 7.998439788818359
-7.621304512023926 1.4952290058135986 7.895661354064941
-7.859207630157471 1.4952290058135986 7.792883396148682
-8.097110748291016 1.4952290058135986 7.690105438232422
-8.398467063903809 1.4952290058135986 7.734206676483154
-8.15527629852295 1.4952290058135986 7.824744701385498
-7.91208553314209 1.4952290058135986 7.915282726287842
-7.6688947677612305 1.4952290058135986 8.005821228027344
-7.425704002380371 1.4952290058135986 8.096359252929688
-7.182513236999512 1.4952290058135986 8.186897277832031
-6.939322471618652 1.4952290058135986 8.277435302734375
-6.696131706237793 1.4952290058135986 8.367973327636719
-6.452940940856934 1.4952290058135986 8.458511352539062
-6.209750175476074 1.4952290058135986 8.549049377441406
-5.966559886932373 1.4952290058135986 8.63958740234375
-5.7233686447143555 1.4952290058135986 8.730125427246094
-7.18251371383667 1.4952290058135986 8.186897277832031
-8.160564422607422 1.4952290058135986 7.836984634399414
-7.922661304473877 1.4952290058135986 7.939763069152832
-7.684758186340332 1.4952290058135986 8.042540550231934
-7.446855545043945 1.4952290058135986 8.145318984985352
-7.2089524269104 1.4952290058135986 8.248096466064453
-6.971049785614014 1.4952290058135986 8.350874900817871
-6.733146667480469 1.4952290058135986 8.453653335571289
-6.495244026184082 1.4952290058135986 8.556431770324707
-6.257341384887695 1.4952290058135986 8.659209251403809
-6.01943826675415 1.4952290058135986 8.761987686157227
-5.7815351486206055 1.4952290058135986 8.864765167236328
-6.511333465576172 -1.2674980163574219 8.53011417388916
-6.739293575286865 -1.2674980163574219 8.41226577758789
-6.967253684997559 -1.2674980163574219 8.294417381286621
-7.195213317871094 -1.2674980163574219 8.176568984985352
-7.423172950744629 -1.2674980163574219 8.058720588684082
-7.6511335372924805 -1.2674980163574219 7.940872669219971
-7.879093170166016 -1.2674980163574219 7.823024272918701
-8.107053756713867 -1.2674980163574219 7.705175876617432
-6.75339412689209 -1.2674980163574219 8.444905281066895
-6.988404750823975 -1.2674980163574219 8.343377113342285
-7.223414897918701 -1.2674980163574219 8.241848945617676
-7.6934356689453125 -1.2674980163574219 8.03879165649414
-7.928446292877197 -1.2674980163574219 7.937263488769531
-8.163456916809082 -1.2674980163574219 7.835734844207764
-8.398467063903809 -1.2674980163574219 7.734206676483154
-8.392698287963867 -1.016340970993042 7.720853805541992
-8.386929512023926 -0.7651839852333069 7.707501411437988
-8.3811616897583 -0.5140269994735718 7.694148540496826
-8.37539291381836 -0.26287001371383667 7.680795669555664
-8.369625091552734 -0.011713027954101562 7.66744327545166
-8.363856315612793 0.23944401741027832 7.654090881347656
-8.358087539672852 0.49060097336769104 7.640738487243652
-8.352319717407227 0.7417579889297485 7.627385139465332
-8.346549987792969 0.9929150342941284 7.614032745361328
-8.340782165527344 1.2440719604492188 7.600680351257324
-8.398467063903809 -1.016340970993042 7.734206676483154
-8.398467063903809 -0.7651839852333069 7.734206676483154
-8.398467063903809 -0.5140269994735718 7.734206199645996
-8.398467063903809 -0.26287001371383667 7.734206199645996
-8.398467063903809 -0.011713027954101562 7.734206199645996
-8.398467063903809 0.23944401741027832 7.734206199645996
-8.398467063903809 0.49060097336769104 7.734206199645996
-8.398467063903809 0.7417579889297485 7.734206199645996
-8.398467063903809 0.9929150342941284 7.734206676483154
-8.398467063903809 1.2440719604492188 7.734206676483154
-5.537863731384277 1.2440719604492188 8.954191207885742
-5.532095432281494 0.9929150342941284 8.940837860107422
-5.526326656341553 0.7417579889297485 8.927485466003418
-5.5205583572387695 0.49060097336769104 8.914133071899414
-5.514789581298828 0.23944401741027832 8.900779724121094
-5.509020805358887 -0.011713027954101562 8.88742733001709
-5.5032525062561035 -0.26287001371383667 8.874074935913086
-5.49748420715332 -0.5140269994735718 8.860721588134766
-5.491715431213379 -0.7651839852333069 8.847369194030762
-5.4859466552734375 -1.016340970993042 8.834015846252441
-8.545347213745117 -1.2674980163574219 7.67075252532959
-8.481892585754395 -1.2674980163574219 7.523873329162598
-8.545347213745117 1.4952290058135986 7.67075252532959
-8.481892585754395 1.4952290058135986 7.523873329162598
-8.340782165527344 -1.016340970993042 7.600680351257324
-8.346549987792969 -0.7651839852333069 7.614032745361328
-8.352319717407227 -0.5140269994735718 7.627385139465332
-8.358087539672852 -0.26287001371383667 7.640738487243652
-8.363856315612793 -0.011713027954101562 7.654090881347656
-8.369625091552734 0.23944401741027832 7.66744327545166
-8.37539291381836 0.49060097336769104 7.680795669555664
-8.3811616897583 0.7417579889297485 7.694148540496826
-8.386929512023926 0.9929150342941284 7.707501411437988
-8.392698287963867 1.2440719604492188 7.720853805541992
-8.411819458007812 -1.016340970993042 7.728437900543213
-8.425172805786133 -0.7651839852333069 7.72266960144043
-8.438525199890137 -0.5140269994735718 7.716900825500488
-8.45187759399414 -0.26287001371383667 7.711132049560547
-8.465230941772461 -0.011713027954101562 7.705363750457764
-8.478583335876465 0.23944401741027832 7.6995954513549805
-8.491935729980469 0.49060097336769104 7.693826675415039
-8.505289077758789 0.7417579889297485 7.688057899475098
-8.518641471862793 0.9929150342941284 7.6822896003723145
-8.531994819641113 1.2440719604492188 7.676521301269531
-8.545347213745117 1.2440719604492188 7.67075252532959
-8.545347213745117 0.9929150342941284 7.67075252532959
-8.545347213745117 0.7417579889297485 7.67075252532959
-8.545347213745117 0.49060097336769104 7.67075252532959
-8.545347213745117 0.23944401741027832 7.67075252532959
-8.545347213745117 -0.011713027954101562 7.67075252532959
-8.545347213745117 -0.26287001371383667 7.67075252532959
-8.545347213745117 -0.5140269994735718 7.67075252532959
-8.545347213745117 -0.7651839852333069 7.67075252532959
-8.545347213745117 -1.016340970993042 7.67075252532959
-8.539578437805176 -1.016340970993042 7.657400131225586
-8.533809661865234 -0.7651839852333069 7.644047260284424
-8.52804183959961 -0.5140269994735718 7.630694389343262
-8.522273063659668 -0.26287001371383667 7.617341995239258
-8.516504287719727 -0.011713027954101562 7.603989124298096
-8.510735511779785 0.23944401741027832 7.590636730194092
-8.504966735839844 0.49060097336769104 7.57728385925293
-8.499198913574219 0.7417579889297485 7.563931465148926
-8.493429183959961 0.9929150342941284 7.550578594207764
-8.487661361694336 1.2440719604492188 7.537225723266602
-8.481892585754395 1.2440719604492188 7.523873329162598
-8.481892585754395 0.9929150342941284 7.523873329162598
-8.481892585754395 0.7417579889297485 7.523873329162598
-8.481892585754395 0.49060097336769104 7.523873329162598
-8.481892585754395 0.23944401741027832 7.523873329162598
-8.481892585754395 -0.011713027954101562 7.523873329162598
-8.481892585754395 -0.26287001371383667 7.523873329162598
-8.481892585754395 -0.5140269994735718 7.523873329162598
-8.481892585754395 -0.7651839852333069 7.523873329162598
-8.481892585754395 -1.016340970993042 7.523873329162598
-8.46854019165039 -1.016340970993042 7.529641628265381
-8.45518684387207 -0.7651839852333069 7.535410404205322
-8.441834449768066 -0.5140269994735718 7.541179180145264
-8.428482055664062 -0.26287001371383667 7.546947479248047
-8.415128707885742 -0.011713027954101562 7.552716255187988
-8.401777267456055 0.23944401741027832 7.5584845542907715
-8.388423919677734 0.49060097336769104 7.564253807067871
-8.37507152557373 0.7417579889297485 7.570021629333496
-8.36171817779541 0.9929150342941284 7.5757904052734375
-8.348365783691406 1.2440719604492188 7.581559181213379
-5.208652496337891 -1.2674980163574219 8.937966346740723
-5.480177879333496 -1.2674980163574219 8.820664405822754
-5.480177879333496 -1.016340970993042 8.820664405822754
-5.480177879333496 -0.7651839852333069 8.820664405822754
-5.480177879333496 -0.5140269994735718 8.820664405822754
-5.480177879333496 -0.26287001371383667 8.820664405822754
-5.480177879333496 -0.011713027954101562 8.820664405822754
-5.480177879333496 0.23944401741027832 8.820664405822754
-5.480177879333496 0.49060097336769104 8.820664405822754
-5.480177879333496 0.7417579889297485 8.820664405822754
-5.480177879333496 0.9929150342941284 8.820664405822754
-5.480177879333496 1.2440719604492188 8.820664405822754
-5.480177879333496 1.4952290058135986 8.820664405822754
-5.455493927001953 1.2440719604492188 8.831327438354492
-5.430809497833252 0.9929150342941284 8.841991424560547
-5.406125545501709 0.7417579889297485 8.852655410766602
-5.381441593170166 0.49060097336769104 8.863319396972656
-5.356757164001465 0.23944401741027832 8.873983383178711
-5.332073211669922 -0.011713027954101562 8.884647369384766
-5.307389259338379 -0.26287001371383667 8.89531135559082
-5.282704830169678 -0.5140269994735718 8.905975341796875
-5.258020877838135 -0.7651839852333069 8.916638374328613
-5.233336448669434 -1.016340970993042 8.927303314208984
-5.208652496337891 1.4952290058135986 8.937966346740723
-5.208652496337891 1.2440719604492188 8.937966346740723
-5.208652496337891 0.9929150342941284 8.937966346740723
-5.208652496337891 0.7417579889297485 8.937966346740723
-5.208652496337891 0.49060097336769104 8.937966346740723
-5.208652496337891 0.23944401741027832 8.937966346740723
-5.208652496337891 -0.011713027954101562 8.937966346740723
