3.4083728790283203 1.3664989471435547 -5.083144187927246
3.408372402191162 1.0991100072860718 -5.083144187927246
3.408372640609741 0.8317211270332336 -5.083144187927246
3.408372640609741 0.5643322467803955 -5.083144187927246
3.408372640609741 0.29694318771362305 -5.083144187927246
3.408372640609741 0.029554307460784912 -5.083144187927246
3.408372402191162 -0.23783457279205322 -5.083144187927246
3.4083728790283203 -0.5052234530448914 -5.083144187927246
3.408372640609741 -0.7726123929023743 -5.083144187927246
3.408372640609741 -1.0400012731552124 -5.083144187927246
3.435955286026001 2.168665647506714 -5.240748882293701
3.650164842605591 2.168665647506714 -5.203259468078613
3.6336870193481445 1.9012765884399414 -5.206142902374268
3.6172096729278564 1.6338878870010376 -5.209027290344238
3.60073184967041 1.3664989471435547 -5.211910724639893
3.584254264831543 1.0991100072860718 -5.214794635772705
3.567776679992676 0.8317211270332336 -5.217678546905518
3.5512990951538086 0.5643322467803955 -5.22056245803833
3.534821033477783 0.29694318771362305 -5.223445892333984
3.518343448638916 0.029554307460784912 -5.226329803466797
3.501865863800049 -0.23783457279205322 -5.229213714599609
3.4853882789611816 -0.5052234530448914 -5.232097625732422
3.4689106941223145 -0.7726123929023743 -5.234981060028076
3.4524331092834473 -1.0400012731552124 -5.237865447998047
3.435955286026001 -1.3073902130126953 -5.240748882293701
3.435955286026001 -1.0400012731552124 -5.240748882293701
3.435955286026001 -0.7726123929023743 -5.240748882293701
3.435955286026001 -0.5052234530448914 -5.240748882293701
3.435955047607422 -0.23783457279205322 -5.240748882293701
3.435955286026001 0.029554307460784912 -5.240748882293701
3.435955286026001 0.29694318771362305 -5.240748882293701
3.435955286026001 0.5643322467803955 -5.240748882293701
3.435955286026001 0.8317211270332336 -5.240748882293701
3.435955047607422 1.0991100072860718 -5.240748882293701
3.435955286026001 1.3664989471435547 -5.240748882293701
3.435955286026001 1.6338878870010376 -5.240748882293701
3.435955286026001 1.9012765884399414 -5.240748882293701
3.650164842605591 1.9012765884399414 -5.203259468078613
3.65016508102417 1.6338878870010376 -5.203259468078613
3.650164842605591 1.3664989471435547 -5.203259468078613
3.650164842605591 1.0991100072860718 -5.203259468078613
3.65016508102417 0.8317211270332336 -5.203259468078613
3.650164842605591 0.5643322467803955 -5.203259468078613
3.650164842605591 0.29694318771362305 -5.203259468078613
3.65016508102417 0.029554307460784912 -5.203259468078613
3.650164842605591 -0.23783457279205322 -5.203259468078613
3.650164842605591 -0.5052234530448914 -5.203259468078613
3.65016508102417 -0.7726123929023743 -5.203259468078613
3.650164842605591 -1.0400012731552124 -5.203259468078613
3.650164842605591 -1.3073902130126953 -5.203259468078613
0.1385549008846283 2.168665647506714 -5.817833423614502
0.3922010660171509 2.168665647506714 -5.773442268371582
0.6458472609519958 2.168665647506714 -5.729051113128662
0.8994934558868408 2.168665647506714 -5.684659957885742
1.153139591217041 2.168665647506714 -5.6402692794799805
1.4067858457565308 2.168665647506714 -5.595877647399902
1.6604321002960205 2.168665647506714 -5.551486968994141
1.9140781164169312 2.168665647506714 -5.5070953369140625
2.167724370956421 2.168665647506714 -5.462704658508301
2.421370506286621 2.168665647506714 -5.418313503265381
2.6750168800354004 2.168665647506714 -5.373922348022461
2.9286627769470215 2.168665647506714 -5.329531192779541
3.182309150695801 2.168665647506714 -5.285140037536621
3.182309150695801 2.092546224594116 -5.285140037536621
2.9286627769470215 2.0164268016815186 -5.329531192779541
2.6750168800354004 1.940307378768921 -5.373922348022461
2.421370506286621 1.8641880750656128 -5.418313503265381
2.167724370956421 1.7880686521530151 -5.462704658508301
1.9140781164169312 1.711949348449707 -5.5070953369140625
1.6604321002960205 1.6358298063278198 -5.551486968994141
1.4067858457565308 1.5597105026245117 -5.595877647399902
1.153139591217041 1.483591079711914 -5.6402692794799805
0.8994934558868408 1.4074716567993164 -5.684659957885742
0.6458472609519958 1.3313522338867188 -5.729051113128662
0.3922010660171509 1.2552329301834106 -5.773442268371582
0.1385549008846283 1.179113507270813 -5.817833423614502
0.1385549008846283 1.50896418094635 -5.817833423614502
0.1385549008846283 1.8388148546218872 -5.817833423614502
3.435955047607422 1.8388148546218872 -5.240748882293701
3.435955047607422 1.50896418094635 -5.240748882293701
3.435955286026001 1.179113507270813 -5.240748882293701
3.182309150695801 1.179113507270813 -5.285140037536621
2.9286627769470215 1.179113507270813 -5.329531192779541
2.6750168800354004 1.179113507270813 -5.373922348022461
2.421370506286621 1.179113507270813 -5.418313503265381
2.167724370956421 1.179113507270813 -5.462704658508301
1.9140781164169312 1.179113507270813 -5.5070953369140625
1.6604321002960205 1.179113507270813 -5.551486968994141
1.4067858457565308 1.179113507270813 -5.595877647399902
1.153139591217041 1.179113507270813 -5.6402692794799805
0.8994934558868408 1.179113507270813 -5.684659957885742
0.6458472609519958 1.179113507270813 -5.729051113128662
0.3922010660171509 1.179113507270813 -5.773442268371582
0.1385549008846283 -1.3073902130126953 -5.817833423614502
0.3922010660171509 -1.3073902130126953 -5.773442268371582
0.6458472609519958 -1.3073902130126953 -5.729051113128662
0.8994934558868408 -1.3073902130126953 -5.684659957885742
1.153139591217041 -1.3073902130126953 -5.6402692794799805
1.4067858457565308 -1.3073902130126953 -5.595877647399902
1.6604321002960205 -1.3073902130126953 -5.551486968994141
1.9140781164169312 -1.3073902130126953 -5.5070953369140625
2.167724370956421 -1.3073902130126953 -5.462704658508301
2.421370506286621 -1.3073902130126953 -5.418313503265381
2.6750168800354004 -1.3073902130126953 -5.373922348022461
2.9286627769470215 -1.3073902130126953 -5.329531192779541
3.182309150695801 -1.3073902130126953 -5.285140037536621
0.1047421544790268 2.168665647506714 -5.823750972747803
0.13855478167533875 2.168665647506714 -5.817833423614502
0.13595381379127502 1.9012765884399414 -5.818288803100586
0.1333528459072113 1.6338878870010376 -5.818743705749512
0.1307518631219864 1.3664989471435547 -5.819199085235596
0.12815089523792267 1.0991100072860718 -5.81965446472168
0.12554992735385895 0.8317211270332336 -5.8201093673706055
0.12294895201921463 0.5643322467803955 -5.820564270019531
0.12034798413515091 0.29694318771362305 -5.821020126342773
0.11774700880050659 0.029554307460784912 -5.821475028991699
0.11514604091644287 -0.23783457279205322 -5.821929931640625
0.11254507303237915 -0.5052234530448914 -5.822385311126709
0.10994409769773483 -0.7726123929023743 -5.822840690612793
0.10734312981367111 -1.0400012731552124 -5.823295593261719
0.1047421544790268 -1.3073902130126953 -5.823750972747803
0.1047421544790268 -1.0400012731552124 -5.823750972747803
0.1047421544790268 -0.7726123929023743 -5.823750972747803
0.1047421544790268 -0.5052234530448914 -5.823750972747803
0.1047421544790268 -0.23783457279205322 -5.823750972747803
0.1047421544790268 0.029554307460784912 -5.823750972747803
0.1047421544790268 0.29694318771362305 -5.823750972747803
0.1047421544790268 0.5643322467803955 -5.823750972747803
0.1047421544790268 0.8317211270332336 -5.823750972747803
0.1047421544790268 1.0991100072860718 -5.823750972747803
0.1047421544790268 1.3664989471435547 -5.823750972747803
0.1047421544790268 1.6338878870010376 -5.823750972747803
0.1047421544790268 1.9012765884399414 -5.823750972747803
0.13855478167533875 1.9012765884399414 -5.817833423614502
0.13855478167533875 1.6338878870010376 -5.817833423614502
0.13855478167533875 1.3664989471435547 -5.817833423614502
0.13855478167533875 1.0991100072860718 -5.817833423614502
0.13855478167533875 0.8317211270332336 -5.817833423614502
0.13855478167533875 0.5643322467803955 -5.817833423614502
0.13855478167533875 0.29694318771362305 -5.817833423614502
0.13855478167533875 0.029554307460784912 -5.817833423614502
0.13855478167533875 -0.23783457279205322 -5.817833423614502
0.13855478167533875 -0.5052234530448914 -5.817833423614502
0.13855478167533875 -0.7726123929023743 -5.817833423614502
0.13855478167533875 -1.0400012731552124 -5.817833423614502
0.13855478167533875 -1.3073902130126953 -5.817833423614502
3.408372640609741 -1.3073900938034058 -5.083144187927246
3.408372640609741 -1.0311119556427002 -5.083144187927246
3.408372402191162 -0.7548336982727051 -5.083144187927246
3.4083728790283203 -0.4785555899143219 -5.083144187927246
3.408372640609741 -0.20227736234664917 -5.083144187927246
3.408372640609741 0.0740007758140564 -5.083144187927246
3.4083728790283203 0.35027894377708435 -5.083144187927246
3.408372402191162 0.6265571117401123 -5.083144187927246
3.408372640609741 0.9028353691101074 -5.083144187927246
3.4328906536102295 0.9028353691101074 -5.223237037658691
3.429825782775879 0.6265571117401123 -5.20572566986084
3.4267611503601074 0.35027894377708435 -5.18821382522583
3.423696279525757 0.0740007758140564 -5.1707024574279785
3.4206316471099854 -0.20227736234664917 -5.153190612792969
3.4175667762756348 -0.4785555899143219 -5.135679244995117
3.4145021438598633 -0.7548336982727051 -5.118167400360107
3.4114372730255127 -1.0311119556427002 -5.100656032562256
3.435955286026001 0.9028353691101074 -5.240748882293701
3.43595552444458 0.6265571117401123 -5.240748882293701
3.435955047607422 0.35027894377708435 -5.240748882293701
3.435955286026001 0.0740007758140564 -5.240748882293701
3.435955286026001 -0.20227736234664917 -5.240748882293701
3.435955047607422 -0.4785555899143219 -5.240748882293701
3.43595552444458 -0.7548336982727051 -5.240748882293701
3.435955286026001 -1.0311119556427002 -5.240748882293701
3.435955286026001 -1.3073900938034058 -5.240748882293701
0.3900793194770813 1.179113507270813 -5.761319160461426
0.6416037678718567 1.179113507270813 -5.704803943634033
0.8931282162666321 1.179113507270813 -5.648289680480957
1.1446526050567627 1.179113507270813 -5.591775417327881
1.3961771726608276 1.179113507270813 -5.5352606773376465
1.647701621055603 1.179113507270813 -5.478745937347412
1.8992259502410889 1.179113507270813 -5.422231674194336
2.1507503986358643 1.179113507270813 -5.365716934204102
2.4022748470306396 1.179113507270813 -5.309202194213867
2.653799533843994 1.179113507270813 -5.252687931060791
2.9053237438201904 1.179113507270813 -5.196173667907715
3.156848192214966 1.179113507270813 -5.139658451080322
0.11097221821546555 0.9028353691101074 -5.660228729248047
0.11097221821546555 0.6265571117401123 -5.660228729248047
0.11097221821546555 0.35027894377708435 -5.660228729248047
0.11097221821546555 0.0740007758140564 -5.660228729248047
0.11097221821546555 -0.20227736234664917 -5.660228729248047
0.11097221821546555 -0.4785555899143219 -5.660228729248047
0.11097221821546555 -0.7548336982727051 -5.660228729248047
0.11097221821546555 -1.0311119556427002 -5.660228729248047
0.11097221821546555 -1.3073900938034058 -5.660228729248047
0.1385549008846283 -1.3073900938034058 -5.817833423614502
0.13549016416072845 -1.0311119556427002 -5.80032205581665
0.13242541253566742 -0.7548336982727051 -5.782810211181641
0.12936067581176758 -0.4785555899143219 -5.765298366546631
0.12629592418670654 -0.20227736234664917 -5.747786521911621
0.1232311874628067 0.0740007758140564 -5.7302751541137695
0.12016645073890686 0.35027894377708435 -5.712763786315918
0.11710170656442642 0.6265571117401123 -5.695251941680908
0.11403696238994598 0.9028353691101074 -5.677740097045898
0.1385549008846283 -1.0311119556427002 -5.81783390045166
0.1385549008846283 -0.7548336982727051 -5.817833423614502
0.1385549008846283 -0.4785555899143219 -5.817833423614502
0.1385549008846283 -0.20227736234664917 -5.817833423614502
0.1385549008846283 0.0740007758140564 -5.817833423614502
0.1385549008846283 0.35027894377708435 -5.817833423614502
0.1385549008846283 0.6265571117401123 -5.817833423614502
0.1385549008846283 0.9028353691101074 -5.81783390045166
0.3304039537906647 2.168665647506714 -5.621825695037842
0.5836484432220459 2.168665647506714 -5.577504634857178
0.8368929028511047 2.168665647506714 -5.533184051513672
1.0901373624801636 2.168665647506714 -5.488862991333008
1.3433818817138672 2.168665647506714 -5.444542407989502
1.5966262817382812 2.168665647506714 -5.400221824645996
1.8498708009719849 2.168665647506714 -5.355900764465332
2.1031153202056885 2.168665647506714 -5.311579704284668
2.3563597202301025 2.168665647506714 -5.267259120941162
2.6096043586730957 2.168665647506714 -5.222938537597656
2.8628487586975098 2.168665647506714 -5.178617477416992
3.116093158721924 2.168665647506714 -5.134296894073486
3.369337558746338 2.168665647506714 -5.089975833892822
3.3949501514434814 2.168665647506714 -5.23632287979126
3.139735460281372 2.168665647506714 -5.269386291503906
2.8845207691192627 2.168665647506714 -5.302449703216553
2.6293063163757324 2.168665647506714 -5.335513114929199
2.374091386795044 2.168665647506714 -5.3685760498046875
2.1188769340515137 2.168665647506714 -5.401639461517334
1.8636621236801147 2.168665647506714 -5.4347028732299805
1.6084474325180054 2.168665647506714 -5.467766284942627
1.3532328605651855 2.168665647506714 -5.500829696655273
1.0980181694030762 2.168665647506714 -5.53389310836792
0.8428034782409668 2.168665647506714 -5.566956043243408
0.5875887870788574 2.168665647506714 -5.600019454956055
0.3323741555213928 2.168665647506714 -5.633082866668701
3.3969204425811768 2.168665647506714 -5.247580528259277
3.1436758041381836 2.168665647506714 -5.291901111602783
2.8904314041137695 2.168665647506714 -5.336222171783447
2.6371870040893555 2.168665647506714 -5.380542755126953
2.3839423656463623 2.168665647506714 -5.424863815307617
2.1306979656219482 2.168665647506714 -5.469184398651123
1.8774534463882446 2.168665647506714 -5.513504981994629
1.624208927154541 2.168665647506714 -5.557826042175293
1.3709646463394165 2.168665647506714 -5.602147102355957
1.117720127105713 2.168665647506714 -5.646467685699463
0.8644755482673645 2.168665647506714 -5.690788269042969
0.6112310886383057 2.168665647506714 -5.735109329223633
0.3579866290092468 2.168665647506714 -5.779429912567139
3.648043155670166 -1.0400012731552124 -5.191135883331299
3.645921468734741 -0.7726123929023743 -5.179012775421143
3.6437997817993164 -0.5052234530448914 -5.166889190673828
3.6416778564453125 -0.23783457279205322 -5.154766082763672
3.639556407928467 0.029554307460784912 -5.142642498016357
3.637434482574463 0.29694318771362305 -5.130518913269043
3.635312557220459 0.5643322467803955 -5.118395805358887
3.6331911087036133 0.8317211270332336 -5.106272220611572
3.6310691833496094 1.0991100072860718 -5.094148635864258
3.6289474964141846 1.3664989471435547 -5.082025527954102
3.6268258094787598 1.6338878870010376 -5.069901943206787
3.624704122543335 1.9012765884399414 -5.057778835296631
0.10262040793895721 1.9012765884399414 -5.811627388000488
0.10049866884946823 1.6338878870010376 -5.799504280090332
0.09837692230939865 1.3664989471435547 -5.787380695343018
0.09625516831874847 1.0991100072860718 -5.775257110595703
0.09413342922925949 0.8317211270332336 -5.763134002685547
0.09201169013977051 0.5643322467803955 -5.751010417938232
0.08988994359970093 0.29694318771362305 -5.738886833190918
0.08776819705963135 0.029554307460784912 -5.726763725280762
0.08564645051956177 -0.23783457279205322 -5.714640140533447
0.08352470397949219 -0.5052234530448914 -5.702516555786133
0.08140295743942261 -0.7726123929023743 -5.690393447875977
0.07928121834993362 -1.0400012731552124 -5.678269863128662
1.9192008972167969 1.1126097440719604 4.687280178070068
1.9652197360992432 1.1126097440719604 4.424333572387695
2.0112385749816895 1.1126097440719604 4.161386966705322
2.0572574138641357 1.1126097440719604 3.898439884185791
2.103276252746582 1.1126097440719604 3.635493278503418
2.1492950916290283 1.1126097440719604 3.372546672821045
2.1953139305114746 1.1126097440719604 3.1095998287200928
2.241332769393921 1.1126097440719604 2.8466532230377197
2.201066255569458 1.2584431171417236 3.0767316818237305
2.160799741744995 1.4042764902114868 3.306809902191162
2.1205334663391113 1.55010986328125 3.5368881225585938
2.0802669525146484 1.6959433555603027 3.7669668197631836
2.0400004386901855 1.8417766094207764 3.9970450401306152
1.9997339248657227 1.987610101699829 4.227123260498047
1.9594674110412598 2.1334433555603027 4.457201957702637
1.9192008972167969 2.2792768478393555 4.687280178070068
1.9192008972167969 1.987610101699829 4.687280178070068
1.9192008972167969 1.6959433555603027 4.687280178070068
1.9192008972167969 1.4042764902114868 4.687280178070068
2.274634838104248 1.2792764902114868 2.6563687324523926
2.307936906814575 1.4459431171417236 2.4660847187042236
2.3412389755249023 1.61260986328125 2.2758004665374756
2.3745410442352295 1.7792766094207764 2.0855159759521484
2.4078431129455566 1.9459433555603027 1.8952319622039795
2.441145181655884 2.112610101699829 1.704947590827942
2.474447250366211 2.2792768478393555 1.5146633386611938
2.4281766414642334 2.2792768478393555 1.7790480852127075
2.381906270980835 2.2792768478393555 2.0434327125549316
2.3356356620788574 2.2792768478393555 2.3078174591064453
2.28936505317688 2.2792768478393555 2.572202205657959
2.2430946826934814 2.2792768478393555 2.8365869522094727
2.196824073791504 2.2792768478393555 3.1009716987609863
2.1505537033081055 2.2792768478393555 3.3653564453125
2.104282855987549 2.2792768478393555 3.6297411918640137
2.0580124855041504 2.2792768478393555 3.8941259384155273
2.011742115020752 2.2792768478393555 4.158510684967041
1.9654713869094849 2.2792768478393555 4.422895431518555
2.241332769393921 -1.3073899745941162 2.8466532230377197
2.260758876800537 -1.067389965057373 2.73565411567688
2.2801852226257324 -0.8273899555206299 2.624654769897461
2.2996113300323486 -0.5873899459838867 2.5136559009552
2.319037437438965 -0.34738993644714355 2.4026565551757812
2.33846378326416 -0.10738992691040039 2.2916574478149414
2.3578901290893555 0.13261008262634277 2.1806583404541016
2.3773162364959717 0.37261009216308594 2.0696592330932617
2.396742343902588 0.6126101016998291 1.9586598873138428
2.416168689727783 0.852610170841217 1.847660779953003
2.4355947971343994 1.0926101207733154 1.736661672592163
2.4550211429595947 1.3326101303100586 1.6256625652313232
2.474447250366211 1.5726101398468018 1.5146633386611938
2.4278242588043213 1.4806100130081177 1.7810614109039307
2.3812015056610107 1.3886100053787231 2.047459125518799
2.334578514099121 1.296609878540039 2.313857316970825
2.2879557609558105 1.2046098709106445 2.5802552700042725
2.241332769393921 0.8437209129333496 2.8466529846191406
2.241332769393921 0.574832022190094 2.8466532230377197
2.241332769393921 0.30594316124916077 2.8466532230377197
2.241332769393921 0.03705430030822754 2.8466532230377197
2.241332769393921 -0.2318345606327057 2.8466532230377197
2.241332769393921 -0.5007233619689941 2.8466532230377197
2.241332769393921 -0.769612193107605 2.8466532230377197
2.241332769393921 -1.0385011434555054 2.8466529846191406
2.474447250366211 1.9259434938430786 1.5146633386611938
2.269742727279663 -1.1153900623321533 2.6843223571777344
2.298152446746826 -0.9233899712562561 2.521991491317749
2.3265624046325684 -0.7313899993896484 2.3596606254577637
2.3549723625183105 -0.539389967918396 2.197329521179199
2.3833820819854736 -0.34738993644714355 2.034998893737793
2.411792039871216 -0.1553899049758911 1.872667908668518
2.440201759338379 0.03661012649536133 1.7103370428085327
2.468611717224121 0.22861003875732422 1.5480061769485474
2.4970216751098633 0.42061007022857666 1.385675311088562
2.5254316329956055 0.6126101016998291 1.2233444452285767
2.5538413524627686 0.8046101331710815 1.0610134601593018
2.5822513103485107 0.9966101050376892 0.8986825942993164
2.610661268234253 1.1886100769042969 0.736351728439331
2.639070987701416 1.3806102275848389 0.5740208625793457
2.667480945587158 1.5726101398468018 0.41168999671936035
2.619222640991211 1.5726101398468018 0.6874333620071411
2.5709640979766846 1.5726101398468018 0.9631766676902771
2.522705554962158 1.5726101398468018 1.238919973373413
2.284496784210205 -1.3073899745941162 2.6000185012817383
2.3276607990264893 -1.3073899745941162 2.353383779525757
2.3708248138427734 -1.3073899745941162 2.1067490577697754
2.4139890670776367 -1.3073899745941162 1.860114574432373
2.457153081893921 -1.3073899745941162 1.613479733467102
2.500317096710205 -1.3073899745941162 1.3668451309204102
2.5434811115264893 -1.3073899745941162 1.1202104091644287
2.5866451263427734 -1.3073899745941162 0.8735758066177368
2.6298093795776367 -1.3073899745941162 0.6269409656524658
2.672973394393921 -1.3073899745941162 0.3803063631057739
2.716137409210205 -1.3073899745941162 0.13367164134979248
2.7593016624450684 -1.3073899745941162 -0.11296308040618896
2.8024654388427734 -1.3073899745941162 -0.35959768295288086
2.8456296920776367 -1.3073899745941162 -0.6062322854995728
2.888793706893921 -1.3073899745941162 -0.8528671264648438
2.931957721710205 -1.3073899745941162 -1.0995017290115356
2.9751217365264893 -1.3073899745941162 -1.3461363315582275
3.0182857513427734 -1.3073899745941162 -1.5927711725234985
3.0614500045776367 -1.3073899745941162 -1.8394057750701904
3.104613780975342 -1.3073900938034058 -2.086040496826172
3.147778034210205 -1.3073900938034058 -2.3326752185821533
3.1909420490264893 -1.3073900938034058 -2.5793099403381348
3.2341063022613525 -1.3073900938034058 -2.825944423675537
3.2772703170776367 -1.3073899745941162 -3.0725793838500977
3.320434331893921 -1.3073900938034058 -3.3192138671875
3.363598346710205 -1.3073900938034058 -3.5658485889434814
3.4067623615264893 -1.3073900938034058 -3.812483072280884
3.4499263763427734 -1.3073900938034058 -4.059117794036865
3.4930906295776367 -1.3073900938034058 -4.305752754211426
3.536254644393921 -1.3073900938034058 -4.552387237548828
3.579418659210205 -1.3073900938034058 -4.799022197723389
3.6225826740264893 -1.3073900938034058 -5.045656681060791
3.582786798477173 -1.1873900890350342 -4.818267345428467
3.5429909229278564 -1.0673900842666626 -4.590878009796143
3.503194808959961 -0.947390079498291 -4.36348819732666
3.4633989334106445 -0.8273900747299194 -4.136098861694336
3.423603057861328 -0.7073900103569031 -3.9087095260620117
3.3838071823120117 -0.5873900055885315 -3.6813201904296875
3.3440113067626953 -0.4673900604248047 -3.453930616378784
3.304215431213379 -0.3473900556564331 -3.22654128074646
3.2644195556640625 -0.22738999128341675 -2.9991517066955566
3.224623680114746 -0.10738998651504517 -2.7717623710632324
3.1848278045654297 0.012610018253326416 -2.544372797012329
3.1450319290161133 0.132610023021698 -2.316983222961426
3.105236053466797 0.2526100277900696 -2.0895938873291016
3.0654399394989014 0.37261003255844116 -1.8622044324874878
3.025644063949585 0.49261003732681274 -1.6348150968551636
2.9858481884002686 0.6126099824905396 -1.4074256420135498
2.946052312850952 0.7326099872589111 -1.1800360679626465
2.9062564373016357 0.8526101112365723 -0.9526466727256775
2.8664605617523193 0.9726101160049438 -0.7252572178840637
2.826664686203003 1.0926101207733154 -0.49786779284477234
2.7868688106536865 1.212610125541687 -0.27047833800315857
2.747072696685791 1.3326101303100586 -0.04308891296386719
2.7072768211364746 1.4526101350784302 0.18430055677890778
2.7108945846557617 1.5997035503387451 0.16362878680229187
2.7543084621429443 1.6267969608306885 -0.08443242311477661
2.797722101211548 1.6538904905319214 -0.3324936330318451
2.8411357402801514 1.6809839010238647 -0.5805548429489136
2.884549379348755 1.708077311515808 -0.8286161422729492
2.9279632568359375 1.7351707220077515 -1.0766772031784058
2.971376895904541 1.7622641324996948 -1.3247385025024414
3.0147905349731445 1.7893575429916382 -1.5727996826171875
3.058204412460327 1.816451072692871 -1.8208608627319336
3.1016180515289307 1.8435444831848145 -2.068922281265259
3.1450319290161133 1.8706378936767578 -2.316983222961426
3.188445568084717 1.8977313041687012 -2.565044403076172
3.2318592071533203 1.9248247146606445 -2.813105821609497
3.275273084640503 1.951918125152588 -3.061167001724243
3.3186867237091064 1.9790115356445312 -3.3092281818389893
3.36210036277771 2.0061049461364746 -3.5572893619537354
3.4055142402648926 2.033198356628418 -3.8053505420684814
3.448927879333496 2.0602920055389404 -4.053411483764648
3.4923415184020996 2.087385416030884 -4.301473140716553
3.535755157470703 2.114478826522827 -4.549534320831299
3.5791690349578857 2.1415719985961914 -4.797595500946045
3.6225826740264893 2.168665647506714 -5.045656681060791
3.5791690349578857 2.1686654090881348 -4.797595500946045
3.535755157470703 2.168665647506714 -4.549534320831299
3.4923415184020996 2.168665647506714 -4.301473140716553
3.448927879333496 2.168665647506714 -4.053411483764648
3.4055142402648926 2.168665647506714 -3.8053505420684814
3.36210036277771 2.168665647506714 -3.5572893619537354
3.3186867237091064 2.168665647506714 -3.3092281818389893
3.275273084640503 2.168665647506714 -3.061167001724243
3.2318592071533203 2.168665647506714 -2.813105821609497
3.188445568084717 2.168665647506714 -2.565044403076172
3.1450319290161133 2.168665647506714 -2.316983222961426
3.1016180515289307 2.168665647506714 -2.068922281265259
3.058204412460327 2.168665647506714 -1.8208608627319336
3.0147905349731445 2.168665647506714 -1.5727996826171875
2.971376895904541 2.168665647506714 -1.3247385025024414
2.9279632568359375 2.168665647506714 -1.0766772031784058
2.884549379348755 2.168665647506714 -0.8286161422729492
2.8411357402801514 2.168665647506714 -0.5805548429489136
2.797722101211548 2.168665647506714 -0.3324936330318451
2.7543084621429443 2.168665647506714 -0.08443242311477661
2.7108945846557617 2.1686654090881348 0.16362878680229187
2.667480945587158 2.168665647506714 0.41168999671936035
2.667480945587158 1.8706378936767578 0.41168999671936035
3.6225826740264893 -1.0400012731552124 -5.045656681060791
3.6225826740264893 -0.7726122736930847 -5.045657157897949
3.6225826740264893 -0.5052234530448914 -5.045656681060791
3.6225829124450684 -0.23783445358276367 -5.045656681060791
3.6225826740264893 0.029554426670074463 -5.045656681060791
3.6225826740264893 0.2969433069229126 -5.045656681060791
3.6225826740264893 0.5643322467803955 -5.045656681060791
3.6225826740264893 0.8317211270332336 -5.045656681060791
3.6225829124450684 1.0991100072860718 -5.045656681060791
3.6225826740264893 1.3664989471435547 -5.045656681060791
3.6225826740264893 1.6338878870010376 -5.045657157897949
3.6225826740264893 1.901276707649231 -5.045656681060791
3.464977979660034 2.168665647506714 -5.073239326477051
3.464977979660034 1.901276707649231 -5.073239326477051
3.4649782180786133 1.6338878870010376 -5.073239326477051
3.464977979660034 1.3664989471435547 -5.073239326477051
3.464977979660034 1.0991100072860718 -5.073239326477051
3.464977979660034 0.8317211270332336 -5.073239326477051
3.464977979660034 0.5643322467803955 -5.073239326477051
3.464977979660034 0.2969433069229126 -5.073239326477051
3.464977979660034 0.029554426670074463 -5.073239326477051
3.464977979660034 -0.23783445358276367 -5.073239326477051
3.464977979660034 -0.5052234530448914 -5.073239326477051
3.4649782180786133 -0.7726122736930847 -5.073239326477051
3.464977979660034 -1.0400012731552124 -5.073239326477051
3.464977979660034 -1.3073900938034058 -5.073239326477051
3.4251821041107178 -1.1873900890350342 -4.845849990844727
3.3853859901428223 -1.0673900842666626 -4.618460178375244
3.345590353012085 -0.947390079498291 -4.391071319580078
3.3057944774627686 -0.8273900747299194 -4.163681507110596
3.265998363494873 -0.7073900103569031 -3.9362921714782715
3.2262024879455566 -0.5873900055885315 -3.708902597427368
3.1864066123962402 -0.4673900604248047 -3.481513261795044
3.146610736846924 -0.3473900556564331 -3.2541236877441406
3.1068148612976074 -0.22738999128341675 -3.0267343521118164
3.067018985748291 -0.10738998651504517 -2.799345016479492
3.0272231101989746 0.012610018253326416 -2.571955442428589
2.987427234649658 0.132610023021698 -2.3445661067962646
2.9476311206817627 0.2526100277900696 -2.1171765327453613
2.9078354835510254 0.37261003255844116 -1.8897870779037476
2.86803936958313 0.49261003732681274 -1.6623976230621338
2.8282434940338135 0.6126099824905396 -1.43500816822052
2.788447618484497 0.7326099872589111 -1.2076188325881958
2.7486517429351807 0.8526101112365723 -0.980229377746582
2.708855628967285 0.9726101160049438 -0.7528399229049683
2.6690597534179688 1.0926101207733154 -0.5254504680633545
2.6292638778686523 1.212610125541687 -0.2980610430240631
2.589468240737915 1.3326101303100586 -0.07067158818244934
2.5496721267700195 1.4526101350784302 0.15671785175800323
2.509876251220703 1.5726101398468018 0.3841072916984558
2.5532901287078857 1.5997035503387451 0.13604608178138733
2.59670352935791 1.6267969608306885 -0.11201512813568115
2.6401174068450928 1.6538904905319214 -0.36007633805274963
2.6835312843322754 1.6809839010238647 -0.6081375479698181
2.726944923400879 1.708077311515808 -0.856198787689209
2.7703585624694824 1.7351707220077515 -1.104259967803955
2.813772201538086 1.7622641324996948 -1.3523211479187012
2.8571858406066895 1.7893575429916382 -1.6003823280334473
2.900599479675293 1.816451072692871 -1.848443627357483
2.9440135955810547 1.8435444831848145 -2.0965046882629395
2.987427234649658 1.8706378936767578 -2.3445661067962646
3.0308408737182617 1.8977313041687012 -2.5926272869110107
3.0742545127868652 1.9248247146606445 -2.840688467025757
3.117668390274048 1.951918125152588 -3.088749647140503
3.1610817909240723 1.9790115356445312 -3.336810827255249
3.204495668411255 2.0061049461364746 -3.584872007369995
3.2479095458984375 2.033198356628418 -3.832933187484741
3.291323184967041 2.0602920055389404 -4.080994606018066
3.3347368240356445 2.087385416030884 -4.3290557861328125
3.378150701522827 2.114478826522827 -4.577116966247559
3.4215641021728516 2.1415719985961914 -4.825178146362305
2.509876251220703 2.168665647506714 0.3841072916984558
2.5532901287078857 2.1686654090881348 0.13604608178138733
2.59670352935791 2.168665647506714 -0.11201512813568115
2.6401174068450928 2.168665647506714 -0.36007633805274963
2.6835312843322754 2.168665647506714 -0.6081375479698181
2.726944923400879 2.168665647506714 -0.856198787689209
2.7703585624694824 2.168665647506714 -1.104259967803955
2.813772201538086 2.168665647506714 -1.3523211479187012
2.8571858406066895 2.168665647506714 -1.6003823280334473
2.900599479675293 2.168665647506714 -1.848443627357483
2.9440135955810547 2.168665647506714 -2.0965046882629395
2.987427234649658 2.168665647506714 -2.3445661067962646
3.0308408737182617 2.168665647506714 -2.5926272869110107
3.0742545127868652 2.168665647506714 -2.840688467025757
3.117668390274048 2.168665647506714 -3.088749647140503
3.1610817909240723 2.168665647506714 -3.336810827255249
3.204495668411255 2.168665647506714 -3.584872007369995
3.2479095458984375 2.168665647506714 -3.832933187484741
3.291323184967041 2.168665647506714 -4.080994606018066
3.3347368240356445 2.168665647506714 -4.3290557861328125
3.378150701522827 2.168665647506714 -4.577116966247559
3.4215641021728516 2.1686654090881348 -4.825178146362305
2.509876251220703 1.8706378936767578 0.3841072916984558
3.421813726425171 -1.3073900938034058 -4.82660436630249
3.378649950027466 -1.3073900938034058 -4.579969882965088
3.3354856967926025 -1.3073900938034058 -4.3333353996276855
3.2923219203948975 -1.3073900938034058 -4.086700916290283
3.249157667160034 -1.3073900938034058 -3.8400659561157227
3.20599365234375 -1.3073900938034058 -3.593431234359741
3.162829637527466 -1.3073900938034058 -3.3467965126037598
3.1196656227111816 -1.3073899745941162 -3.1001617908477783
3.0765016078948975 -1.3073900938034058 -2.853527069091797
3.0333375930786133 -1.3073900938034058 -2.6068925857543945
2.99017333984375 -1.3073900938034058 -2.360257625579834
2.947009325027466 -1.3073900938034058 -2.1136231422424316
2.9038453102111816 -1.3073899745941162 -1.8669884204864502
2.8606810569763184 -1.3073899745941162 -1.6203536987304688
2.8175172805786133 -1.3073899745941162 -1.3737190961837769
2.77435302734375 -1.3073899745941162 -1.1270843744277954
2.731189250946045 -1.3073899745941162 -0.880449652671814
2.6880249977111816 -1.3073899745941162 -0.6338150501251221
2.6448609828948975 -1.3073899745941162 -0.3871803283691406
2.6016969680786133 -1.3073899745941162 -0.14054560661315918
2.55853271484375 -1.3073899745941162 0.10608899593353271
2.515368938446045 -1.3073899745941162 0.3527238368988037
2.4722046852111816 -1.3073899745941162 0.5993584394454956
2.4290406703948975 -1.3073899745941162 0.8459930419921875
2.3858766555786133 -1.3073899745941162 1.0926276445388794
2.342712640762329 -1.3073899745941162 1.3392624855041504
2.299548625946045 -1.3073899745941162 1.5858972072601318
2.2563843727111816 -1.3073899745941162 1.8325318098068237
2.2132203578948975 -1.3073899745941162 2.0791664123535156
2.1700563430786133 -1.3073899745941162 2.325801372528076
2.126892566680908 -1.3073899745941162 2.5724358558654785
2.083728313446045 -1.3073899745941162 2.81907057762146
2.112138271331787 -1.1153900623321533 2.6567397117614746
2.14054799079895 -0.9233899712562561 2.49440860748291
2.1689579486846924 -0.7313899993896484 2.332077980041504
2.1973676681518555 -0.539389967918396 2.1697471141815186
2.2257776260375977 -0.34738993644714355 2.007416009902954
2.25418758392334 -0.1553899049758911 1.8450852632522583
2.282597541809082 0.03661012649536133 1.682754397392273
2.311007261276245 0.22861003875732422 1.5204235315322876
2.339416980743408 0.42061007022857666 1.3580925464630127
2.3678269386291504 0.6126101016998291 1.1957616806030273
2.3962368965148926 0.8046101331710815 1.033430814743042
2.4246466159820557 0.9966101050376892 0.8710999488830566
2.4530563354492188 1.1886100769042969 0.7087690830230713
2.48146653175354 1.3806102275848389 0.5464382171630859
2.316842794418335 1.5726101398468018 1.487080693244934
2.3651010990142822 1.5726101398468018 1.2113373279571533
2.4133596420288086 1.5726101398468018 0.9355939626693726
2.461617946624756 1.5726101398468018 0.6598505973815918
2.103154420852661 -1.067389965057373 2.708071231842041
2.1225807666778564 -0.8273899555206299 2.5970723628997803
2.1420068740844727 -0.5873899459838867 2.4860730171203613
2.161433219909668 -0.34738993644714355 2.3750739097595215
2.180859327316284 -0.10738992691040039 2.2640748023986816
2.2002854347229004 0.13261008262634277 2.153075695037842
2.2197117805480957 0.37261009216308594 2.042076587677002
2.239137887954712 0.6126101016998291 1.931077241897583
2.258563995361328 0.852610170841217 1.8200781345367432
2.2779903411865234 1.0926101207733154 1.7090790271759033
2.2974166870117188 1.3326101303100586 1.598079800605774
2.316842794418335 2.2792768478393555 1.487080693244934
2.316842794418335 1.9259434938430786 1.487080693244934
2.2702198028564453 1.4806100130081177 1.753478765487671
2.2235970497131348 1.3886100053787231 2.019876480102539
2.176974058151245 1.296609878540039 2.2862746715545654
2.1303513050079346 1.2046098709106445 2.5526726245880127
2.083728313446045 1.1126097440719604 2.81907057762146
2.117030382156372 1.2792764902114868 2.628786325454712
2.150332450866699 1.4459431171417236 2.438502073287964
2.1836345195770264 1.61260986328125 2.2482175827026367
2.2169365882873535 1.7792766094207764 2.0579335689544678
2.2502386569976807 1.9459433555603027 1.8676493167877197
2.283540725708008 2.112610101699829 1.6773649454116821
2.083728313446045 -1.0385011434555054 2.81907057762146
2.083728313446045 -0.769612193107605 2.81907057762146
2.083728313446045 -0.5007233619689941 2.81907057762146
2.083728313446045 -0.2318345606327057 2.81907057762146
2.083728313446045 0.03705430030822754 2.81907057762146
2.083728313446045 0.30594316124916077 2.81907057762146
2.083728313446045 0.574832022190094 2.81907057762146
2.083728313446045 0.8437209129333496 2.81907057762146
2.043461799621582 1.2584431171417236 3.0491490364074707
2.003195285797119 1.4042764902114868 3.2792272567749023
1.9629288911819458 1.55010986328125 3.509305715560913
1.9226622581481934 1.6959433555603027 3.739384174346924
1.8823957443237305 1.8417766094207764 3.9694623947143555
1.8421293497085571 1.987610101699829 4.199540615081787
1.8018627166748047 2.1334433555603027 4.429618835449219
1.7615963220596313 2.2792768478393555 4.659697532653809
1.8078668117523193 2.2792768478393555 4.395312786102295
1.8541374206542969 2.2792768478393555 4.130928039550781
1.9004080295562744 2.2792768478393555 3.8665432929992676
1.9466785192489624 2.2792768478393555 3.602158546447754
1.9929490089416504 2.2792768478393555 3.3377737998962402
2.039219617843628 2.2792768478393555 3.0733890533447266
2.0854902267456055 2.2792768478393555 2.809004306793213
2.131760597229004 2.2792768478393555 2.544619560241699
2.1780312061309814 2.2792768478393555 2.2802348136901855
2.224301815032959 2.2792768478393555 2.015850305557251
2.2705724239349365 2.2792768478393555 1.7514654397964478
2.0377094745635986 1.1126097440719604 3.082017421722412
1.9916906356811523 1.1126097440719604 3.344964027404785
1.9456716775894165 1.1126097440719604 3.607910633087158
1.8996529579162598 1.1126097440719604 3.8708572387695312
1.8536341190338135 1.1126097440719604 4.133803844451904
1.8076151609420776 1.1126097440719604 4.3967509269714355
1.7615963220596313 1.1126097440719604 4.659697532653809
1.7615963220596313 1.4042764902114868 4.659697532653809
1.7615963220596313 1.6959433555603027 4.659697532653809
1.7615963220596313 1.987610101699829 4.659697532653809
3.4771015644073486 -1.0400012731552124 -5.071117401123047
3.489224910736084 -0.7726122736930847 -5.068995475769043
3.5013482570648193 -0.5052234530448914 -5.066874027252197
3.5134716033935547 -0.23783445358276367 -5.064752578735352
3.525595188140869 0.029554426670074463 -5.062630653381348
3.5377185344696045 0.2969433069229126 -5.060508728027344
3.549842119216919 0.5643322467803955 -5.05838680267334
3.5619654655456543 0.8317211270332336 -5.056265354156494
3.5740890502929688 1.0991100072860718 -5.054143905639648
3.586212396621704 1.3664989471435547 -5.0520219802856445
3.5983357429504395 1.6338878870010376 -5.049900531768799
3.610459089279175 1.901276707649231 -5.047778606414795
3.4287281036376953 2.1686654090881348 -4.823924541473389
3.3924782276153564 2.168665647506714 -4.574609279632568
3.3562283515930176 2.168665647506714 -4.325294494628906
3.3199784755706787 2.168665647506714 -4.075979232788086
3.283728837966919 2.168665647506714 -3.826664447784424
3.247478723526001 2.168665647506714 -3.5773494243621826
3.211228847503662 2.168665647506714 -3.3280346393585205
3.1749792098999023 2.168665647506714 -3.0787196159362793
3.1387290954589844 2.168665647506714 -2.829404592514038
3.1024794578552246 2.168665647506714 -2.580089569091797
3.0662293434143066 2.168665647506714 -2.3307747840881348
3.029979705810547 2.168665647506714 -2.0814597606658936
2.993729591369629 2.168665647506714 -1.8321447372436523
2.957479953765869 2.168665647506714 -1.5828297138214111
2.9212300777435303 2.168665647506714 -1.3335148096084595
2.8849802017211914 2.168665647506714 -1.0841997861862183
2.8487300872802734 2.168665647506714 -0.8348848819732666
2.8124804496765137 2.168665647506714 -0.5855698585510254
2.776230573654175 2.168665647506714 -0.33625492453575134
2.739980697631836 2.168665647506714 -0.08693993091583252
2.703730821609497 2.1686654090881348 0.16237503290176392
2.5886785984039307 1.8706378936767578 0.3978986442089081
2.50101900100708 1.5726101398468018 0.6667462587356567
2.492161750793457 1.5726101398468018 0.9493852853775024
2.483304500579834 1.5726101398468018 1.2320243120193481
2.3956451416015625 1.9259434938430786 1.500872015953064
2.283705949783325 2.2792768478393555 1.7537639141082764
2.2505691051483154 2.2792768478393555 2.020447254180908
2.2174322605133057 2.2792768478393555 2.28713059425354
2.184295415878296 2.2792768478393555 2.553813934326172
2.151158571243286 2.2792768478393555 2.8204970359802246
2.1180219650268555 2.2792768478393555 3.0871803760528564
2.0848851203918457 2.2792768478393555 3.3538637161254883
2.051748275756836 2.2792768478393555 3.620546817779541
2.018611431121826 2.2792768478393555 3.887230157852173
1.9854745864868164 2.2792768478393555 4.153913497924805
1.9523377418518066 2.2792768478393555 4.420596599578857
2.0854899883270264 2.2792768478393555 2.809004306793213
2.1511588096618652 2.2792768478393555 2.8204970359802246
1.9192008972167969 -1.3073900938034058 4.687280178070068
1.9192008972167969 -1.0511996746063232 4.68727970123291
1.9192008972167969 -0.7950091361999512 4.687280178070068
1.9192008972167969 -0.5388185977935791 4.687280178070068
1.9192008972167969 -0.2826281189918518 4.687280178070068
1.9192008972167969 -0.02643764019012451 4.687280178070068
1.9192008972167969 0.22975289821624756 4.687280178070068
1.9192008972167969 0.48594337701797485 4.687280178070068
1.9192008972167969 0.7421337962150574 4.687280178070068
1.9192008972167969 0.9983243942260742 4.687280178070068
1.9192008972167969 1.2545148134231567 4.687280178070068
1.9192008972167969 1.5107053518295288 4.687280178070068
1.9192008972167969 1.7668958902359009 4.687280178070068
1.9192008972167969 2.0230863094329834 4.68727970123291
1.7728538513183594 2.0230863094329834 4.661667823791504
1.7841112613677979 1.7668958902359009 4.663638114929199
1.7953686714172363 1.5107053518295288 4.6656084060668945
1.806626319885254 1.2545148134231567 4.667578220367432
1.8178837299346924 0.9983243942260742 4.669548511505127
1.8291411399841309 0.7421337962150574 4.671518325805664
1.8403985500335693 0.48594337701797485 4.673488616943359
1.8516560792922974 0.22975289821624756 4.675458908081055
1.8629136085510254 -0.02643764019012451 4.67742919921875
1.8741710186004639 -0.2826281189918518 4.679399490356445
1.8854284286499023 -0.5388185977935791 4.681369781494141
1.8966859579086304 -0.7950091361999512 4.683339595794678
1.9079433679580688 -1.0511996746063232 4.685309886932373
1.7615963220596313 2.0230863094329834 4.659697532653809
1.7615963220596313 1.7668958902359009 4.659697532653809
1.7615963220596313 1.5107053518295288 4.659697532653809
1.761596441268921 1.2545148134231567 4.659697532653809
1.7615963220596313 0.9983243942260742 4.659697532653809
1.7615963220596313 0.7421337962150574 4.659697532653809
1.7615963220596313 0.48594337701797485 4.659697532653809
1.7615963220596313 0.22975289821624756 4.659697532653809
1.7615963220596313 -0.02643764019012451 4.659697532653809
1.761596441268921 -0.2826281189918518 4.659697532653809
1.7615963220596313 -0.5388185977935791 4.659697532653809
1.7615963220596313 -0.7950091361999512 4.659697532653809
1.7615963220596313 -1.0511996746063232 4.659697532653809
1.7615963220596313 -1.3073900938034058 4.659697532653809
3.62258243560791 -1.3073899745941162 -5.045656204223633
3.579418420791626 -1.3073899745941162 -4.7990217208862305
3.536254405975342 -1.3073899745941162 -4.55238676071167
3.4930903911590576 -1.3073899745941162 -4.305752277374268
3.4499263763427734 -1.3073899745941162 -4.059117794036865
3.40676212310791 -1.3073899745941162 -3.8124825954437256
3.363598108291626 -1.3073899745941162 -3.5658481121063232
3.320434093475342 -1.3073899745941162 -3.319213390350342
3.2772700786590576 -1.3073899745941162 -3.0725789070129395
3.2341060638427734 -1.3073899745941162 -2.825944185256958
3.1909420490264893 -1.3073899745941162 -2.5793097019195557
3.147778034210205 -1.3073899745941162 -2.332674741744995
3.104613780975342 -1.3073899745941162 -2.0860400199890137
3.0614495277404785 -1.3073899745941162 -1.8394055366516113
3.0182857513427734 -1.3073899745941162 -1.5927706956863403
2.97512149810791 -1.3073899745941162 -1.3461360931396484
2.931957721710205 -1.3073899745941162 -1.0995014905929565
2.888793468475342 -1.3073899745941162 -0.8528668880462646
2.8024654388427734 -1.3073899745941162 -0.35959744453430176
2.7593014240264893 -1.3073899745941162 -0.11296284198760986
2.716137409210205 -1.3073899745941162 0.13367176055908203
2.672973155975342 -1.3073899745941162 0.3803064823150635
2.6298093795776367 -1.3073899745941162 0.6269412040710449
2.5866451263427734 -1.3073899745941162 0.8735759258270264
2.500317096710205 -1.3073899745941162 1.3668452501296997
2.457152843475342 -1.3073899745941162 1.6134798526763916
2.3276607990264893 -1.3073899745941162 2.353384017944336
2.131817579269409 -1.3073899745941162 2.5732979774475098
2.1799066066741943 -1.3073899745941162 2.3275251388549805
2.2279958724975586 -1.3073899745941162 2.081752300262451
2.2760848999023438 -1.3073899745941162 1.835979700088501
2.324174404144287 -1.3073899745941162 1.5902070999145508
2.3722634315490723 -1.3073899745941162 1.344434380531311
2.4203526973724365 -1.3073899745941162 1.0986614227294922
2.468441963195801 -1.3073899745941162 0.852888822555542
2.516530990600586 -1.3073899745941162 0.6071162223815918
2.564620018005371 -1.3073899745941162 0.36134350299835205
2.6127095222473145 -1.3073899745941162 0.11557066440582275
2.6607985496520996 -1.3073899745941162 -0.13020193576812744
2.708887815475464 -1.3073899745941162 -0.3759746551513672
2.756977081298828 -1.3073899745941162 -0.6217474937438965
2.8050661087036133 -1.3073899745941162 -0.8675202131271362
2.8531553745269775 -1.3073899745941162 -1.1132928133010864
2.901244640350342 -1.3073899745941162 -1.3590654134750366
2.949333667755127 -1.3073899745941162 -1.6048381328582764
2.997422933578491 -1.3073899745941162 -1.8506109714508057
3.0455119609832764 -1.3073899745941162 -2.096383571624756
3.0936014652252197 -1.3073899745941162 -2.342156410217285
3.141690731048584 -1.3073899745941162 -2.5879292488098145
3.189779758453369 -1.3073899745941162 -2.8337018489837646
3.2378687858581543 -1.3073899745941162 -3.079474449157715
3.2859580516815186 -1.3073899745941162 -3.325247287750244
3.334047317504883 -1.3073899745941162 -3.5710198879241943
3.382136344909668 -1.3073899745941162 -3.8167924880981445
3.4302258491516113 -1.3073899745941162 -4.062565803527832
3.4783148765563965 -1.3073899745941162 -4.308338165283203
3.5264041423797607 -1.3073899745941162 -4.554111003875732
3.574493169784546 -1.3073899745941162 -4.7998833656311035
2.2563843727111816 -1.3073899745941162 1.8325319290161133
2.342712640762329 -1.3073899745941162 1.33926260471344
2.3858766555786133 -1.3073899745941162 1.092627763748169
2.4290406703948975 -1.3073899745941162 0.845993161201477
2.4722046852111816 -1.3073899745941162 0.5993585586547852
2.515368938446045 -1.3073899745941162 0.35272395610809326
2.55853271484375 -1.3073899745941162 0.10608923435211182
2.6016969680786133 -1.3073899745941162 -0.14054548740386963
2.6448609828948975 -1.3073899745941162 -0.3871800899505615
2.6880249977111816 -1.3073899745941162 -0.633814811706543
2.731189250946045 -1.3073899745941162 -0.8804494142532349
2.77435302734375 -1.3073899745941162 -1.1270841360092163
2.8175172805786133 -1.3073899745941162 -1.3737188577651978
2.8606810569763184 -1.3073899745941162 -1.6203534603118896
2.9038453102111816 -1.3073899745941162 -1.866988182067871
2.947009325027466 -1.3073899745941162 -2.1136226654052734
2.99017333984375 -1.3073899745941162 -2.360257625579834
3.0333375930786133 -1.3073899745941162 -2.6068921089172363
3.0765016078948975 -1.3073899745941162 -2.8535268306732178
3.1196656227111816 -1.3073899745941162 -3.100161552429199
3.162829637527466 -1.3073899745941162 -3.3467960357666016
3.20599365234375 -1.3073899745941162 -3.593430757522583
3.249157667160034 -1.3073899745941162 -3.8400654792785645
3.2923219203948975 -1.3073899745941162 -4.086700439453125
3.3354856967926025 -1.3073899745941162 -4.333334922790527
3.378649950027466 -1.3073899745941162 -4.57996940612793
3.421813726425171 -1.3073899745941162 -4.826603889465332
3.464977979660034 -1.3073899745941162 -5.073238849639893
2.1012399196624756 0.8437209129333496 2.8221354484558105
2.1187515258789062 0.574832022190094 2.825200080871582
2.136263132095337 0.30594316124916077 2.8282647132873535
2.1537747383117676 0.03705430030822754 2.831329345703125
2.1712863445281982 -0.2318345606327057 2.8343944549560547
2.188797950744629 -0.5007233619689941 2.837459087371826
