-2.0614101886749268 -0.56020188331604 1.0656688213348389
-2.0614101886749268 -0.7915028929710388 1.0656688213348389
-2.0614101886749268 -1.0228039026260376 1.0656688213348389
-2.0614101886749268 -1.2541049718856812 1.0656688213348389
-2.0791664123535156 -1.4854060411453247 1.0665433406829834
-2.0969226360321045 -1.4854059219360352 1.0674179792404175
-2.1146788597106934 -1.4854060411453247 1.068292498588562
-2.1324353218078613 -1.4854060411453247 1.0691670179367065
-2.150191307067871 -1.4854060411453247 1.070041537284851
-2.167947769165039 -1.4854060411453247 1.0709161758422852
-2.185703754425049 -1.4854059219360352 1.0717906951904297
-2.203460216522217 -1.4854060411453247 1.0726652145385742
-2.203460216522217 -1.2541049718856812 1.0726652145385742
-2.185703754425049 -1.0228039026260376 1.0717906951904297
-2.167947769165039 -0.7915028929710388 1.0709161758422852
-2.150191307067871 -0.56020188331604 1.070041537284851
-2.1324353218078613 -0.3289008140563965 1.0691670179367065
-2.1146788597106934 -0.09759977459907532 1.068292498588562
-2.0969226360321045 0.13370126485824585 1.0674179792404175
-2.0791664123535156 0.365002304315567 1.0665433406829834
-2.2212164402008057 -1.2541049718856812 1.0735397338867188
-2.2212164402008057 -1.0228039026260376 1.0735397338867188
-2.2212164402008057 -0.7915028929710388 1.0735397338867188
-2.2212164402008057 -0.56020188331604 1.0735397338867188
-2.2212164402008057 -0.3289008140563965 1.0735397338867188
-2.2212164402008057 -0.09759977459907532 1.0735397338867188
-2.2212164402008057 0.13370126485824585 1.0735397338867188
-2.2212164402008057 0.365002304315567 1.0735397338867188
-2.18436861038208 -0.9069935083389282 -1.430798053741455
-2.206501007080078 -0.9069935083389282 -1.880162000656128
-2.2286336421966553 -0.9069935083389282 -2.329525947570801
-2.3017210960388184 -0.9069935083389282 -3.452061653137207
-2.3194773197174072 -0.9069935083389282 -3.4511871337890625
-2.337233543395996 -0.9069935083389282 -3.450312614440918
-2.354990005493164 -0.9069935083389282 -3.4494380950927734
-2.372745990753174 -0.9069935083389282 -3.448563575744629
-2.390502452850342 -0.9069935083389282 -3.4476890563964844
-2.4082584381103516 -0.9069935083389282 -3.4468142986297607
-2.4260149002075195 -0.9069935083389282 -3.445939779281616
-2.4149487018585205 -0.9069935083389282 -3.2212576866149902
-2.3861260414123535 -0.9069935083389282 -2.997450351715088
-2.3573036193847656 -0.9069935083389282 -2.7736430168151855
-2.3284811973571777 -0.9069935083389282 -2.549835443496704
-2.29965877532959 -0.9069935083389282 -2.3260278701782227
-2.270836114883423 -0.9069935083389282 -2.1022205352783203
-2.242013692855835 -0.9069935083389282 -1.8784129619598389
-2.213191032409668 -0.9069935083389282 -1.6546056270599365
-2.388439893722534 -0.9069935083389282 -2.321655035018921
-2.366307258605957 -0.9069935083389282 -1.872291088104248
-2.355241060256958 -0.9069935083389282 -1.647608995437622
-2.344174861907959 -0.9069935083389282 -1.4229270219802856
-2.32641863822937 -0.9069935083389282 -1.4238016605377197
-2.3086624145507812 -0.9069935083389282 -1.4246761798858643
-2.2909061908721924 -0.9069935083389282 -1.4255506992340088
-2.2731499671936035 -0.9069935083389282 -1.4264252185821533
-2.2553935050964355 -0.9069935083389282 -1.4272997379302979
-2.237637519836426 -0.9069935083389282 -1.428174376487732
-2.219881057739258 -0.9069935083389282 -1.4290488958358765
-2.202124834060669 -0.9069935083389282 -1.4299235343933105
-2.2839648723602295 -0.7302169799804688 -3.4529361724853516
-2.2839648723602295 -0.5534403324127197 -3.4529361724853516
-2.2839648723602295 -0.37666380405426025 -3.4529361724853516
-2.2839648723602295 -0.199887216091156 -3.4529361724853516
-2.2839648723602295 -0.023110687732696533 -3.4529361724853516
-2.2839648723602295 0.15366590023040771 -3.4529361724853516
-2.2839648723602295 0.33044248819351196 -3.4529361724853516
-2.2839648723602295 0.5072190761566162 -3.4529361724853516
-2.3017210960388184 0.6839956045150757 -3.452061653137207
-2.3194773197174072 0.6839956045150757 -3.4511871337890625
-2.337233543395996 0.6839956045150757 -3.450312614440918
-2.354990005493164 0.6839956045150757 -3.4494380950927734
-2.372745990753174 0.6839956045150757 -3.448563575744629
-2.390502452850342 0.6839956045150757 -3.4476890563964844
-2.4082584381103516 0.6839956045150757 -3.4468142986297607
-2.4260149002075195 0.6839956045150757 -3.445939779281616
-2.4260149002075195 0.5072190761566162 -3.445939779281616
-2.4082584381103516 0.33044248819351196 -3.4468142986297607
-2.390502452850342 0.15366590023040771 -3.4476890563964844
-2.372745990753174 -0.023110687732696533 -3.448563575744629
-2.354990005493164 -0.199887216091156 -3.4494380950927734
-2.337233543395996 -0.37666380405426025 -3.450312614440918
-2.3194773197174072 -0.5534403324127197 -3.4511871337890625
-2.3017210960388184 -0.7302169799804688 -3.452061653137207
-2.4437711238861084 0.5072190761566162 -3.4450652599334717
-2.4437711238861084 0.33044248819351196 -3.4450650215148926
-2.4437711238861084 0.15366590023040771 -3.445065498352051
-2.4437711238861084 -0.023110687732696533 -3.4450652599334717
-2.4437711238861084 -0.199887216091156 -3.4450652599334717
-2.4437711238861084 -0.37666380405426025 -3.445065498352051
-2.4437711238861084 -0.5534403324127197 -3.4450650215148926
-2.4437711238861084 -0.7302169799804688 -3.4450652599334717
-2.2286336421966553 0.6839956045150757 -2.329525947570801
-2.206501007080078 0.6839956045150757 -1.880162000656128
-2.18436861038208 0.6839956045150757 -1.430798053741455
-2.202124834060669 0.6839956045150757 -1.4299235343933105
-2.219881057739258 0.6839956045150757 -1.4290488958358765
-2.237637519836426 0.6839956045150757 -1.428174376487732
-2.2553935050964355 0.6839956045150757 -1.4272997379302979
-2.2731499671936035 0.6839956045150757 -1.4264252185821533
-2.2909061908721924 0.6839956045150757 -1.4255506992340088
-2.3086624145507812 0.6839956045150757 -1.4246761798858643
-2.32641863822937 0.6839956045150757 -1.4238016605377197
-2.344174861907959 0.6839956045150757 -1.4229270219802856
-2.337484836578369 0.6839956045150757 -1.6484836339950562
-2.3307948112487793 0.6839956045150757 -1.874040126800537
-2.3241047859191895 0.6839956045150757 -2.0995967388153076
-2.3174147605895996 0.6839956045150757 -2.325153350830078
-2.3107247352600098 0.6839956045150757 -2.5507099628448486
-2.30403470993042 0.6839956045150757 -2.77626633644104
-2.297344923019409 0.6839956045150757 -3.0018229484558105
-2.2906548976898193 0.6839956045150757 -3.227379560470581
-2.355241060256958 0.6839956045150757 -1.647608995437622
-2.366307258605957 0.6839956045150757 -1.872291088104248
-2.388439893722534 0.6839956045150757 -2.321655035018921
-2.18436861038208 0.5072190761566162 -1.430798053741455
-2.18436861038208 0.33044248819351196 -1.430798053741455
-2.18436861038208 0.15366590023040771 -1.430798053741455
-2.18436861038208 -0.023110687732696533 -1.430798053741455
-2.18436861038208 -0.199887216091156 -1.430798053741455
-2.18436861038208 -0.37666380405426025 -1.430798053741455
-2.18436861038208 -0.5534403324127197 -1.430798053741455
-2.18436861038208 -0.7302169799804688 -1.430798053741455
-2.32641863822937 -0.7302169799804688 -1.4238016605377197
-2.3086624145507812 -0.5534403324127197 -1.4246761798858643
-2.2909061908721924 -0.37666380405426025 -1.4255506992340088
-2.2731499671936035 -0.199887216091156 -1.4264252185821533
-2.2553935050964355 -0.023110687732696533 -1.4272997379302979
-2.237637519836426 0.15366590023040771 -1.428174376487732
-2.219881057739258 0.33044248819351196 -1.4290488958358765
-2.202124834060669 0.5072190761566162 -1.4299235343933105
-2.344174861907959 -0.7302169799804688 -1.4229270219802856
-2.344174861907959 -0.5534403324127197 -1.4229270219802856
-2.344174861907959 -0.37666380405426025 -1.4229270219802856
-2.344174861907959 -0.199887216091156 -1.4229270219802856
-2.344174861907959 -0.023110687732696533 -1.4229270219802856
-2.344174861907959 0.15366590023040771 -1.4229270219802856
-2.344174861907959 0.33044248819351196 -1.4229270219802856
-2.344174861907959 0.5072190761566162 -1.4229270219802856
-2.049729108810425 1.2445939779281616 1.302833080291748
-2.080332040786743 1.2445939779281616 0.6814901828765869
-2.1109352111816406 1.2445939779281616 0.060147106647491455
-2.141538143157959 1.2445939779281616 -0.5611959099769592
-2.1721410751342773 1.2445939779281616 -1.1825388669967651
-2.2027440071105957 1.2445939779281616 -1.8038818836212158
-2.233346939086914 1.2445939779281616 -2.425224781036377
-2.2639498710632324 1.2445939779281616 -3.046567916870117
-2.29455304145813 1.2445939779281616 -3.6679108142852783
-2.3251559734344482 1.2445939779281616 -4.2892537117004395
-2.342912197113037 1.2445939779281616 -4.288379192352295
-2.360668420791626 1.2445939779281616 -4.28750467300415
-2.378424644470215 1.2445939779281616 -4.286630153656006
-2.396181106567383 1.2445939779281616 -4.285755634307861
-2.4139370918273926 1.2445939779281616 -4.284881114959717
-2.4316935539245605 1.2445939779281616 -4.284006595611572
-2.4494497776031494 1.2445939779281616 -4.283132076263428
-2.4672060012817383 1.2445939779281616 -4.282257556915283
-2.43660306930542 1.2445939779281616 -3.660914659500122
-2.3882436752319336 1.2445939779281616 -3.0404462814331055
-2.3398845195770264 1.2445939779281616 -2.4199776649475098
-2.291525363922119 1.2445939779281616 -1.7995092868804932
-2.243165969848633 1.2445939779281616 -1.179040789604187
-2.1948068141937256 1.2445939779281616 -0.5585723519325256
-2.1464476585388184 1.2445939779281616 0.06189614534378052
-2.098088264465332 1.2445939779281616 0.6823647022247314
-2.454359292984009 1.2445939779281616 -3.6600401401519775
-2.4237563610076904 1.2445939779281616 -3.0386970043182373
-2.393153190612793 1.2445939779281616 -2.417354106903076
-2.3625502586364746 1.2445939779281616 -1.796011209487915
-2.3319473266601562 1.2445939779281616 -1.1746680736541748
-2.301344394683838 1.2445939779281616 -0.5533250570297241
-2.2707414627075195 1.2445939779281616 0.06801801919937134
-2.240138292312622 1.2445939779281616 0.6893609762191772
-2.2095353603363037 1.2445939779281616 1.310703992843628
-2.191779136657715 1.2445939779281616 1.3098294734954834
-2.174022912979126 1.2445939779281616 1.3089549541473389
-2.156266689300537 1.2445939779281616 1.3080803155899048
-2.138510227203369 1.2445939779281616 1.3072059154510498
-2.1207542419433594 1.2445939779281616 1.3063311576843262
-2.1029977798461914 1.2445939779281616 1.3054566383361816
-2.0852415561676025 1.2445939779281616 1.304582118988037
-2.0674853324890137 1.2445939779281616 1.3037077188491821
-2.0549206733703613 -1.4854060411453247 1.197426676750183
-2.0523247718811035 -1.4854059219360352 1.2501299381256104
-2.0510270595550537 -1.4854060411453247 1.2764815092086792
-2.049729108810425 -1.4854060411453247 1.302833080291748
-2.0674853324890137 -1.4854060411453247 1.3037077188491821
-2.0852415561676025 -1.4854059219360352 1.304582118988037
-2.1029977798461914 -1.4854060411453247 1.3054566383361816
-2.1207542419433594 -1.4854060411453247 1.3063311576843262
-2.138510227203369 -1.4854060411453247 1.3072059154510498
-2.156266689300537 -1.4854060411453247 1.3080803155899048
-2.174022912979126 -1.4854059219360352 1.3089549541473389
-2.191779136657715 -1.4854060411453247 1.3098294734954834
-2.2095353603363037 -1.4854060411453247 1.310703992843628
-2.1930770874023438 -1.4854060411453247 1.283477783203125
-2.1766185760498047 -1.4854059219360352 1.2562518119812012
-2.1601603031158447 -1.4854060411453247 1.2290256023406982
-2.1437020301818848 -1.4854060411453247 1.2017995119094849
-2.1272435188293457 -1.4854060411453247 1.174573302268982
-2.1107852458953857 -1.4854060411453247 1.1473472118377686
-2.094326972961426 -1.4854059219360352 1.1201211214065552
-2.0778684616088867 -1.4854060411453247 1.0928949117660522
-2.2108333110809326 -1.4854060411453247 1.284352421760559
-2.2121312618255615 -1.4854059219360352 1.2580008506774902
-2.2134289741516113 -1.4854060411453247 1.2316492795944214
-2.2147269248962402 -1.4854060411453247 1.2052977085113525
-2.217322826385498 -1.4854060411453247 1.1525945663452148
-2.3251559734344482 -1.4854060411453247 -4.2892537117004395
-2.300837516784668 -1.4854060411453247 -3.7955079078674316
-2.2765190601348877 -1.4854059219360352 -3.301762104034424
-2.2522006034851074 -1.4854060411453247 -2.808016538619995
-2.227882146835327 -1.4854060411453247 -2.3142707347869873
-2.203563690185547 -1.4854060411453247 -1.82052481174469
-2.1792454719543457 -1.4854060411453247 -1.3267791271209717
-2.1549270153045654 -1.4854059219360352 -0.8330332636833191
-2.130608558654785 -1.4854060411453247 -0.33928751945495605
-2.272658586502075 -1.4854060411453247 -0.3322911262512207
-2.2792205810546875 -1.4854059219360352 -0.826911449432373
-2.285782814025879 -1.4854060411453247 -1.3215317726135254
-2.2923450469970703 -1.4854060411453247 -1.8161520957946777
-2.2989072799682617 -1.4854060411453247 -2.31077241897583
-2.305469512939453 -1.4854060411453247 -2.8053927421569824
-2.3120317459106445 -1.4854059219360352 -3.3000130653381348
-2.318593978881836 -1.4854060411453247 -3.794633388519287
-2.290414810180664 -1.4854060411453247 -0.33141660690307617
-2.3147332668304443 -1.4854059219360352 -0.825162410736084
-2.3390517234802246 -1.4854060411453247 -1.3189082145690918
-2.363369941711426 -1.4854060411453247 -1.8126540184020996
-2.387688636779785 -1.4854060411453247 -2.3063998222351074
-2.4120068550109863 -1.4854060411453247 -2.8001456260681152
-2.4363255500793457 -1.4854059219360352 -3.293891429901123
-2.460643768310547 -1.4854060411453247 -3.787637233734131
-2.4672060012817383 -1.4854060411453247 -4.282257556915283
-2.4494497776031494 -1.4854059219360352 -4.283132076263428
-2.4316935539245605 -1.4854060411453247 -4.284006595611572
-2.4139370918273926 -1.4854060411453247 -4.284881114959717
-2.396181106567383 -1.4854060411453247 -4.285755634307861
-2.378424644470215 -1.4854060411453247 -4.286630153656006
-2.360668420791626 -1.4854059219360352 -4.28750467300415
-2.342912197113037 -1.4854060411453247 -4.288379192352295
-2.3251559734344482 0.941260576248169 -4.2892537117004395
-2.3251559734344482 0.6379272937774658 -4.2892537117004395
-2.3251559734344482 0.3345939815044403 -4.2892537117004395
-2.3251559734344482 0.031260669231414795 -4.2892537117004395
-2.3251559734344482 -0.2720727324485779 -4.2892537117004395
-2.3251559734344482 -0.575406014919281 -4.2892537117004395
-2.3251559734344482 -0.8787393569946289 -4.2892537117004395
-2.3251559734344482 -1.182072639465332 -4.2892537117004395
-2.4672060012817383 -1.182072639465332 -4.282257556915283
-2.4494497776031494 -0.8787393569946289 -4.283132076263428
-2.4316935539245605 -0.575406014919281 -4.284006595611572
-2.4139370918273926 -0.2720727324485779 -4.284881114959717
-2.396181106567383 0.031260669231414795 -4.285755634307861
-2.378424644470215 0.3345939815044403 -4.286630153656006
-2.360668420791626 0.6379272937774658 -4.28750467300415
-2.342912197113037 0.941260576248169 -4.288379192352295
-2.049729108810425 -1.182072639465332 1.302833080291748
-2.049729108810425 -0.8787393569946289 1.302833080291748
-2.049729108810425 -0.575406014919281 1.302833080291748
-2.049729108810425 -0.2720727324485779 1.302833080291748
-2.049729108810425 0.031260669231414795 1.302833080291748
-2.049729108810425 0.3345939815044403 1.302833080291748
-2.049729108810425 0.6379272937774658 1.302833080291748
-2.049729108810425 0.941260576248169 1.302833080291748
-2.191779136657715 0.941260576248169 1.3098294734954834
-2.174022912979126 0.6379272937774658 1.3089549541473389
-2.156266689300537 0.3345939815044403 1.3080803155899048
-2.138510227203369 0.031260669231414795 1.3072059154510498
-2.1207542419433594 -0.2720727324485779 1.3063311576843262
-2.1029977798461914 -0.575406014919281 1.3054566383361816
-2.0852415561676025 -0.8787393569946289 1.304582118988037
-2.0674853324890137 -1.182072639465332 1.3037077188491821
-2.2095353603363037 0.941260576248169 1.310703992843628
-2.2095353603363037 0.6379272937774658 1.310703992843628
-2.2095353603363037 0.3345939815044403 1.310703992843628
-2.2095353603363037 0.031260669231414795 1.310703992843628
-2.2095353603363037 -0.2720727324485779 1.310703992843628
-2.2095353603363037 -0.575406014919281 1.310703992843628
-2.2095353603363037 -0.8787393569946289 1.310703992843628
-2.2095353603363037 -1.182072639465332 1.310703992843628
-2.485836982727051 -1.4854060411453247 -4.299139499664307
-2.4867115020751953 -1.4854059219360352 -4.316895484924316
-2.4875857830047607 -1.4854060411453247 -4.334651947021484
-2.4884605407714844 -1.4854060411453247 -4.352408409118652
-2.489335060119629 -1.4854060411453247 -4.370164394378662
-2.4902095794677734 -1.4854060411453247 -4.387920379638672
-2.491084098815918 -1.4854059219360352 -4.40567684173584
-2.4919586181640625 -1.4854060411453247 -4.423433303833008
-2.492833137512207 -1.4854060411453247 -4.441189289093018
-2.4742023944854736 -1.4854060411453247 -4.424307823181152
-2.4555716514587402 -1.4854059219360352 -4.407425880432129
-2.4369406700134277 -1.4854060411453247 -4.3905439376831055
-2.4183099269866943 -1.4854060411453247 -4.37366247177124
-2.399679183959961 -1.4854060411453247 -4.356781005859375
-2.3810484409332275 -1.4854060411453247 -4.339899063110352
-2.362417697906494 -1.4854059219360352 -4.323017120361328
-2.3437867164611816 -1.4854060411453247 -4.306135654449463
-2.475076913833618 -1.4854060411453247 -4.442063808441162
-2.4573206901550293 -1.4854059219360352 -4.442938327789307
-2.4395642280578613 -1.4854060411453247 -4.443812847137451
-2.4218082427978516 -1.4854060411453247 -4.444687366485596
-2.4040517807006836 -1.4854060411453247 -4.44556188583374
-2.3862955570220947 -1.4854060411453247 -4.446436405181885
-2.368539333343506 -1.4854059219360352 -4.447310924530029
-2.350783348083496 -1.4854060411453247 -4.448185443878174
-2.333026885986328 -1.4854060411453247 -4.449059963226318
-2.3321523666381836 -1.4854060411453247 -4.431303977966309
-2.331277847290039 -1.4854059219360352 -4.413547515869141
-2.3304033279418945 -1.4854060411453247 -4.395791053771973
-2.32952880859375 -1.4854060411453247 -4.378035068511963
-2.3286542892456055 -1.4854060411453247 -4.360279083251953
-2.327779769897461 -1.4854060411453247 -4.342522621154785
-2.3269050121307373 -1.4854059219360352 -4.324766159057617
-2.3260304927825928 -1.4854060411453247 -4.307010173797607
-2.3437867164611816 1.2445939779281616 -4.306135654449463
-2.362417697906494 1.2445939779281616 -4.323017120361328
-2.3810484409332275 1.2445939779281616 -4.339899063110352
-2.399679183959961 1.2445939779281616 -4.356781005859375
-2.4183099269866943 1.2445939779281616 -4.37366247177124
-2.4369406700134277 1.2445939779281616 -4.3905439376831055
-2.4555716514587402 1.2445939779281616 -4.407425880432129
-2.4742023944854736 1.2445939779281616 -4.424307823181152
-2.492833137512207 1.2445939779281616 -4.441189289093018
-2.4919586181640625 1.2445939779281616 -4.423433303833008
-2.491084098815918 1.2445939779281616 -4.40567684173584
-2.4902095794677734 1.2445939779281616 -4.387920379638672
-2.489335060119629 1.2445939779281616 -4.370164394378662
-2.4884605407714844 1.2445939779281616 -4.352408409118652
-2.4875857830047607 1.2445939779281616 -4.334651947021484
-2.4867115020751953 1.2445939779281616 -4.316895484924316
-2.485836982727051 1.2445939779281616 -4.299139499664307
-2.333026885986328 1.2445939779281616 -4.449059963226318
-2.350783348083496 1.2445939779281616 -4.448185443878174
-2.368539333343506 1.2445939779281616 -4.447310924530029
-2.3862955570220947 1.2445939779281616 -4.446436405181885
-2.4040517807006836 1.2445939779281616 -4.44556188583374
-2.4218082427978516 1.2445939779281616 -4.444687366485596
-2.4395642280578613 1.2445939779281616 -4.443812847137451
-2.4573206901550293 1.2445939779281616 -4.442938327789307
-2.475076913833618 1.2445939779281616 -4.442063808441162
-2.3260304927825928 1.2445939779281616 -4.307010173797607
-2.3269050121307373 1.2445939779281616 -4.324766159057617
-2.327779769897461 1.2445939779281616 -4.342522621154785
-2.3286542892456055 1.2445939779281616 -4.360279083251953
-2.32952880859375 1.2445939779281616 -4.378035068511963
-2.3304033279418945 1.2445939779281616 -4.395791053771973
-2.331277847290039 1.2445939779281616 -4.413547515869141
-2.3321523666381836 1.2445939779281616 -4.431303977966309
-2.342912197113037 -1.182072639465332 -4.288379192352295
-2.360668420791626 -0.8787393569946289 -4.28750467300415
-2.378424644470215 -0.575406014919281 -4.286630153656006
-2.396181106567383 -0.2720727324485779 -4.285755634307861
-2.4139370918273926 0.031260669231414795 -4.284881114959717
-2.4316935539245605 0.3345939815044403 -4.284006595611572
-2.4494497776031494 0.6379272937774658 -4.283132076263428
-2.4672060012817383 0.941260576248169 -4.282257556915283
-2.485836982727051 -1.182072639465332 -4.299139499664307
-2.4867115020751953 -0.8787393569946289 -4.316895484924316
-2.4875857830047607 -0.575406014919281 -4.334651947021484
-2.4884605407714844 -0.2720727324485779 -4.352408409118652
-2.489335060119629 0.031260669231414795 -4.370164394378662
-2.4902095794677734 0.3345939815044403 -4.387920379638672
-2.491084098815918 0.6379272937774658 -4.40567684173584
-2.4919586181640625 0.941260576248169 -4.423433303833008
-2.492833137512207 0.941260576248169 -4.441189289093018
-2.492833137512207 0.6379272937774658 -4.441189289093018
-2.492833137512207 0.3345939815044403 -4.441189289093018
-2.492833137512207 0.031260669231414795 -4.441189289093018
-2.492833137512207 -0.2720727324485779 -4.441189289093018
-2.492833137512207 -0.575406014919281 -4.441189289093018
-2.492833137512207 -0.8787393569946289 -4.441189289093018
-2.492833137512207 -1.182072639465332 -4.441189289093018
-2.475076913833618 -1.182072639465332 -4.442063808441162
-2.4573206901550293 -0.8787393569946289 -4.442938327789307
-2.4395642280578613 -0.575406014919281 -4.443812847137451
-2.4218082427978516 -0.2720727324485779 -4.444687366485596
-2.4040517807006836 0.031260669231414795 -4.44556188583374
-2.3862955570220947 0.3345939815044403 -4.446436405181885
-2.368539333343506 0.6379272937774658 -4.447310924530029
-2.350783348083496 0.941260576248169 -4.448185443878174
-2.333026885986328 0.941260576248169 -4.449059963226318
-2.333026885986328 0.6379272937774658 -4.449059963226318
-2.333026885986328 0.3345939815044403 -4.449059963226318
-2.333026885986328 0.031260669231414795 -4.449059963226318
-2.333026885986328 -0.2720727324485779 -4.449059963226318
-2.333026885986328 -0.575406014919281 -4.449059963226318
-2.333026885986328 -0.8787393569946289 -4.449059963226318
-2.333026885986328 -1.182072639465332 -4.449059963226318
-2.3321523666381836 -1.182072639465332 -4.431303977966309
-2.331277847290039 -0.8787393569946289 -4.413547515869141
-2.3304033279418945 -0.575406014919281 -4.395791053771973
-2.32952880859375 -0.2720727324485779 -4.378035068511963
-2.3286542892456055 0.031260669231414795 -4.360279083251953
-2.327779769897461 0.3345939815044403 -4.342522621154785
-2.3269050121307373 0.6379272937774658 -4.324766159057617
-2.3260304927825928 0.941260576248169 -4.307010173797607
-0.4726095497608185 -1.4854060411453247 1.2251554727554321
-0.6478450298309326 -1.4854060411453247 1.2337863445281982
-0.8230805397033691 -1.4854059219360352 1.2424170970916748
-0.9983160495758057 -1.4854060411453247 1.2510480880737305
-1.1735515594482422 -1.4854060411453247 1.259678840637207
-1.3487870693206787 -1.4854060411453247 1.2683098316192627
-1.5240225791931152 -1.4854060411453247 1.2769405841827393
-1.6992580890655518 -1.4854059219360352 1.2855714559555054
-1.8744935989379883 -1.4854060411453247 1.2942023277282715
-2.049729108810425 -1.4854060411453247 1.3028331995010376
-2.049729108810425 -1.182072639465332 1.302833080291748
-2.049729108810425 -0.8787393569946289 1.3028331995010376
-2.049729108810425 -0.575406014919281 1.3028331995010376
-2.049729108810425 -0.2720727324485779 1.3028331995010376
-2.049729108810425 0.031260669231414795 1.3028331995010376
-2.049729108810425 0.3345939815044403 1.3028331995010376
-2.049729108810425 0.6379272937774658 1.3028331995010376
-2.049729108810425 0.941260576248169 1.302833080291748
-2.049729108810425 1.2445939779281616 1.3028331995010376
-1.8744935989379883 0.941260576248169 1.2942023277282715
-1.6992580890655518 0.6379272937774658 1.2855714559555054
-1.5240225791931152 0.3345939815044403 1.2769405841827393
-1.3487870693206787 0.031260669231414795 1.2683098316192627
-1.1735515594482422 -0.2720727324485779 1.259678840637207
-0.9983160495758057 -0.575406014919281 1.2510480880737305
-0.8230805397033691 -0.8787393569946289 1.2424170970916748
-0.6478450298309326 -1.182072639465332 1.2337863445281982
-1.8744935989379883 1.2445939779281616 1.2942023277282715
-1.6992580890655518 1.2445939779281616 1.2855714559555054
-1.5240225791931152 1.2445939779281616 1.2769405841827393
-1.3487870693206787 1.2445939779281616 1.2683098316192627
-1.1735515594482422 1.2445939779281616 1.259678840637207
-0.9983160495758057 1.2445939779281616 1.2510480880737305
-0.8230805397033691 1.2445939779281616 1.2424170970916748
-0.6478450298309326 1.2445939779281616 1.2337863445281982
-0.4726095497608185 1.2445939779281616 1.2251554727554321
-0.4726095497608185 0.941260576248169 1.2251554727554321
-0.4726095497608185 0.6379272937774658 1.2251554727554321
-0.47260957956314087 0.3345939815044403 1.2251554727554321
-0.47260957956314087 0.031260669231414795 1.2251554727554321
-0.47260957956314087 -0.2720727324485779 1.2251554727554321
-0.47260957956314087 -0.575406014919281 1.2251554727554321
-0.4726095497608185 -0.8787393569946289 1.2251554727554321
-0.4726095497608185 -1.182072639465332 1.2251554727554321
-0.4647386372089386 1.2445939779281616 1.3849618434906006
-0.6399741172790527 1.2445939779281616 1.3935927152633667
-0.8152096271514893 1.2445939779281616 1.4022235870361328
-0.9904451370239258 1.2445939779281616 1.4108543395996094
-1.1656806468963623 1.2445939779281616 1.4194852113723755
-1.3409161567687988 1.2445939779281616 1.4281160831451416
-1.5161516666412354 1.2445939779281616 1.4367468357086182
-1.6913871765136719 1.2445939779281616 1.4453777074813843
-1.8666226863861084 1.2445939779281616 1.4540085792541504
-2.041858196258545 1.2445939779281616 1.4626394510269165
-1.8666226863861084 0.941260576248169 1.4540085792541504
-1.6913871765136719 0.6379272937774658 1.4453777074813843
-1.5161516666412354 0.3345939815044403 1.4367468357086182
-1.3409161567687988 0.031260669231414795 1.4281160831451416
-1.1656806468963623 -0.2720727324485779 1.4194852113723755
-0.9904451370239258 -0.575406014919281 1.4108543395996094
-0.8152096271514893 -0.8787393569946289 1.4022235870361328
-0.6399741172790527 -1.182072639465332 1.3935927152633667
-0.4647386372089386 -1.4854060411453247 1.3849618434906006
-0.4647386372089386 -1.182072639465332 1.3849618434906006
-0.464738667011261 -0.8787393569946289 1.3849618434906006
-0.4647386074066162 -0.575406014919281 1.3849618434906006
-0.4647386372089386 -0.2720727324485779 1.3849618434906006
-0.4647386372089386 0.031260669231414795 1.3849618434906006
-0.4647386074066162 0.3345939815044403 1.3849618434906006
-0.464738667011261 0.6379272937774658 1.3849618434906006
-0.4647386372089386 0.941260576248169 1.3849618434906006
-2.041858196258545 0.941260576248169 1.4626394510269165
-2.041858196258545 0.6379272937774658 1.462639331817627
-2.041858196258545 0.3345939815044403 1.4626394510269165
-2.041858196258545 0.031260669231414795 1.4626394510269165
-2.041858196258545 -0.2720727324485779 1.4626394510269165
-2.041858196258545 -0.575406014919281 1.4626394510269165
-2.041858196258545 -0.8787393569946289 1.462639331817627
-2.041858196258545 -1.182072639465332 1.4626394510269165
-2.041858196258545 -1.4854060411453247 1.4626394510269165
-1.8666226863861084 -1.4854060411453247 1.4540085792541504
-1.6913871765136719 -1.4854059219360352 1.4453777074813843
-1.5161516666412354 -1.4854060411453247 1.4367468357086182
-1.3409161567687988 -1.4854060411453247 1.4281160831451416
-1.1656806468963623 -1.4854060411453247 1.4194852113723755
-0.9904451370239258 -1.4854060411453247 1.4108543395996094
-0.8152096271514893 -1.4854059219360352 1.4022235870361328
-0.6399741172790527 -1.4854060411453247 1.3935927152633667
-2.0488545894622803 1.2445939779281616 1.3205894231796265
-2.0479800701141357 1.2445939779281616 1.3383457660675049
-2.047105550765991 1.2445939779281616 1.3561019897460938
-2.0462307929992676 1.2445939779281616 1.3738582134246826
-2.045356273651123 1.2445939779281616 1.3916144371032715
-2.0444817543029785 1.2445939779281616 1.4093706607818604
-2.043607234954834 1.2445939779281616 1.4271268844604492
-2.0427327156066895 1.2445939779281616 1.444883108139038
-1.867497205734253 1.2445939779281616 1.4362523555755615
-1.693136215209961 1.2445939779281616 1.409865140914917
-1.5187753438949585 1.2445939779281616 1.3834781646728516
-1.3444143533706665 1.2445939779281616 1.357090950012207
-1.1700533628463745 1.2445939779281616 1.3307039737701416
-0.9956924915313721 1.2445939779281616 1.304316759109497
-0.8213315010070801 1.2445939779281616 1.277929663658142
-0.6469705104827881 1.2445939779281616 1.251542568206787
-0.4656131863594055 1.2445939779281616 1.3672056198120117
-0.46648773550987244 1.2445939779281616 1.3494492769241333
-0.46736228466033936 1.2445939779281616 1.3316930532455444
-0.4682368040084839 1.2445939779281616 1.313936710357666
-0.4691113829612732 1.2445939779281616 1.2961804866790771
-0.4699859023094177 1.2445939779281616 1.2784242630004883
-0.47086048126220703 1.2445939779281616 1.2606680393218994
-0.47173500061035156 1.2445939779281616 1.242911696434021
-0.47173500061035156 -1.4854060411453247 1.242911696434021
-0.47086048126220703 -1.4854059219360352 1.2606680393218994
-0.4699859023094177 -1.4854060411453247 1.2784242630004883
-0.4691113829612732 -1.4854060411453247 1.2961804866790771
-0.4682368040084839 -1.4854060411453247 1.313936710357666
-0.46736228466033936 -1.4854060411453247 1.3316930532455444
-0.46648773550987244 -1.4854059219360352 1.3494492769241333
-0.4656131863594055 -1.4854060411453247 1.3672056198120117
-0.640848696231842 -1.4854060411453247 1.3758363723754883
-0.8169587850570679 -1.4854059219360352 1.3667110204696655
-0.9930688142776489 -1.4854060411453247 1.3575856685638428
-1.16917884349823 -1.4854060411453247 1.3484601974487305
-1.345288872718811 -1.4854060411453247 1.3393348455429077
-1.521398901939392 -1.4854060411453247 1.330209493637085
-1.6975090503692627 -1.4854059219360352 1.3210840225219727
-1.8736190795898438 -1.4854060411453247 1.3119585514068604
-2.0427327156066895 -1.4854060411453247 1.444883108139038
-2.043607234954834 -1.4854059219360352 1.4271268844604492
-2.0444817543029785 -1.4854060411453247 1.4093706607818604
-2.045356273651123 -1.4854060411453247 1.3916144371032715
-2.0462307929992676 -1.4854060411453247 1.3738582134246826
-2.047105550765991 -1.4854060411453247 1.3561019897460938
-2.0479800701141357 -1.4854059219360352 1.3383457660675049
-2.0488545894622803 -1.4854060411453247 1.3205894231796265
-2.0427327156066895 -1.182072639465332 1.444883108139038
-2.043607234954834 -0.8787393569946289 1.4271268844604492
-2.0444817543029785 -0.575406014919281 1.4093706607818604
-2.045356273651123 -0.2720727324485779 1.3916144371032715
-2.0462307929992676 0.031260669231414795 1.3738582134246826
-2.047105550765991 0.3345939815044403 1.3561019897460938
-2.0479800701141357 0.6379272937774658 1.3383457660675049
-2.0488545894622803 0.941260576248169 1.3205894231796265
-0.4656131863594055 0.941260576248169 1.3672056198120117
-0.46648773550987244 0.6379272937774658 1.3494492769241333
-0.46736228466033936 0.3345939815044403 1.3316930532455444
-0.4682368040084839 0.031260669231414795 1.313936710357666
-0.4691113829612732 -0.2720727324485779 1.2961804866790771
-0.4699859023094177 -0.575406014919281 1.2784242630004883
-0.47086048126220703 -0.8787393569946289 1.2606680393218994
-0.47173500061035156 -1.182072639465332 1.242911696434021
-2.049729108810425 -1.4854060411453247 1.302833080291748
-2.0479800701141357 -1.4854059219360352 1.3383455276489258
-2.047105550765991 -1.4854060411453247 1.3561017513275146
-2.0462307929992676 -1.4854060411453247 1.3738579750061035
-2.0444817543029785 -1.4854060411453247 1.4093705415725708
-2.041858196258545 -1.4854060411453247 1.462639331817627
-2.059614419937134 -1.4854060411453247 1.4635138511657715
-2.0773706436157227 -1.4854059219360352 1.4643884897232056
-2.0951271057128906 -1.4854060411453247 1.46526300907135
-2.1128830909729004 -1.4854060411453247 1.4661375284194946
-2.1306395530700684 -1.4854060411453247 1.4670120477676392
-2.1483957767486572 -1.4854060411453247 1.4678866863250732
-2.166152000427246 -1.4854059219360352 1.4687610864639282
-2.183908224105835 -1.4854060411453247 1.4696357250213623
-2.201664447784424 -1.4854060411453247 1.4705102443695068
-2.1847827434539795 -1.4854060411453247 1.4518795013427734
-2.167901039123535 -1.4854059219360352 1.4332486391067505
-2.151019334793091 -1.4854060411453247 1.414617896080017
-2.1341376304626465 -1.4854060411453247 1.3959870338439941
-2.117255926132202 -1.4854060411453247 1.3773562908172607
-2.100374221801758 -1.4854060411453247 1.3587254285812378
-2.0834925174713135 -1.4854059219360352 1.3400946855545044
-2.066610813140869 -1.4854060411453247 1.321463942527771
-2.2025389671325684 -1.4854060411453247 1.452754020690918
-2.203413486480713 -1.4854059219360352 1.4349976778030396
-2.2042880058288574 -1.4854060411453247 1.4172415733337402
-2.205162525177002 -1.4854060411453247 1.3994852304458618
-2.2060370445251465 -1.4854060411453247 1.381729006767273
-2.206911563873291 -1.4854060411453247 1.363972783088684
-2.2077863216400146 -1.4854059219360352 1.3462165594100952
-2.208660840988159 -1.4854060411453247 1.3284602165222168
-2.2095353603363037 -1.4854060411453247 1.310703992843628
-2.191779136657715 -1.4854060411453247 1.3098294734954834
-2.174022912979126 -1.4854059219360352 1.3089549541473389
-2.156266689300537 -1.4854060411453247 1.3080803155899048
-2.138510227203369 -1.4854060411453247 1.3072059154510498
-2.1207542419433594 -1.4854060411453247 1.3063311576843262
-2.1029977798461914 -1.4854060411453247 1.3054566383361816
-2.0852415561676025 -1.4854059219360352 1.304582118988037
-2.0674853324890137 -1.4854060411453247 1.3037077188491821
-2.049729108810425 1.2445939779281616 1.302833080291748
-2.066610813140869 1.2445939779281616 1.321463942527771
-2.0834925174713135 1.2445939779281616 1.3400946855545044
-2.100374221801758 1.2445939779281616 1.3587254285812378
-2.117255926132202 1.2445939779281616 1.3773562908172607
-2.1341376304626465 1.2445939779281616 1.3959870338439941
-2.151019334793091 1.2445939779281616 1.414617896080017
-2.167901039123535 1.2445939779281616 1.4332486391067505
-2.1847827434539795 1.2445939779281616 1.4518795013427734
-2.201664447784424 1.2445939779281616 1.4705102443695068
-2.183908224105835 1.2445939779281616 1.4696357250213623
-2.166152000427246 1.2445939779281616 1.4687610864639282
-2.1483957767486572 1.2445939779281616 1.4678866863250732
-2.1306395530700684 1.2445939779281616 1.4670120477676392
-2.1128830909729004 1.2445939779281616 1.4661375284194946
-2.0951271057128906 1.2445939779281616 1.46526300907135
-2.0773706436157227 1.2445939779281616 1.4643884897232056
-2.059614419937134 1.2445939779281616 1.4635138511657715
-2.041858196258545 1.2445939779281616 1.462639331817627
-2.0444817543029785 1.2445939779281616 1.4093705415725708
-2.0462307929992676 1.2445939779281616 1.3738579750061035
-2.047105550765991 1.2445939779281616 1.3561017513275146
-2.0479800701141357 1.2445939779281616 1.3383455276489258
-2.2095353603363037 1.2445939779281616 1.310703992843628
-2.208660840988159 1.2445939779281616 1.3284602165222168
-2.2077863216400146 1.2445939779281616 1.3462165594100952
-2.206911563873291 1.2445939779281616 1.363972783088684
-2.2060370445251465 1.2445939779281616 1.381729006767273
-2.205162525177002 1.2445939779281616 1.3994852304458618
-2.2042880058288574 1.2445939779281616 1.4172415733337402
-2.203413486480713 1.2445939779281616 1.4349976778030396
-2.2025389671325684 1.2445939779281616 1.452754020690918
-2.0674853324890137 1.2445939779281616 1.3037077188491821
-2.0852415561676025 1.2445939779281616 1.304582118988037
-2.1029977798461914 1.2445939779281616 1.3054566383361816
-2.1207542419433594 1.2445939779281616 1.3063311576843262
-2.138510227203369 1.2445939779281616 1.3072059154510498
-2.156266689300537 1.2445939779281616 1.3080803155899048
-2.174022912979126 1.2445939779281616 1.3089549541473389
-2.191779136657715 1.2445939779281616 1.3098294734954834
-2.0488545894622803 -1.182072639465332 1.3205894231796265
-2.0479800701141357 -0.8787393569946289 1.3383455276489258
-2.047105550765991 -0.575406014919281 1.3561017513275146
-2.0462307929992676 -0.2720727324485779 1.3738579750061035
-2.045356273651123 0.031260669231414795 1.3916144371032715
-2.0444817543029785 0.3345939815044403 1.4093705415725708
-2.043607234954834 0.6379272937774658 1.4271268844604492
-2.0427327156066895 0.941260576248169 1.444883108139038
-2.041858196258545 0.941260576248169 1.462639331817627
-2.041858196258545 0.3345939815044403 1.462639331817627
-2.041858196258545 0.031260669231414795 1.462639331817627
-2.041858196258545 -0.2720727324485779 1.462639331817627
-2.041858196258545 -0.575406014919281 1.462639331817627
-2.041858196258545 -1.182072639465332 1.462639331817627
-2.049729108810425 -0.8787393569946289 1.302833080291748
-2.049729108810425 -0.575406014919281 1.302833080291748
-2.049729108810425 -0.2720727324485779 1.302833080291748
-2.049729108810425 0.031260669231414795 1.302833080291748
-2.049729108810425 0.3345939815044403 1.302833080291748
-2.049729108810425 0.6379272937774658 1.302833080291748
-2.059614419937134 -1.182072639465332 1.4635138511657715
-2.0773706436157227 -0.8787393569946289 1.4643884897232056
-2.0951271057128906 -0.575406014919281 1.46526300907135
-2.1128830909729004 -0.2720727324485779 1.4661375284194946
-2.1306395530700684 0.031260669231414795 1.4670120477676392
-2.1483957767486572 0.3345939815044403 1.4678866863250732
-2.166152000427246 0.6379272937774658 1.4687610864639282
-2.183908224105835 0.941260576248169 1.4696357250213623
-2.201664447784424 0.941260576248169 1.4705102443695068
-2.201664447784424 0.6379272937774658 1.4705102443695068
-2.201664447784424 0.3345939815044403 1.4705102443695068
-2.201664447784424 0.031260669231414795 1.4705102443695068
-2.201664447784424 -0.2720727324485779 1.4705102443695068
-2.201664447784424 -0.575406014919281 1.4705102443695068
-2.201664447784424 -0.8787393569946289 1.4705102443695068
-2.201664447784424 -1.182072639465332 1.4705102443695068
-2.2025389671325684 -1.182072639465332 1.452754020690918
-2.203413486480713 -0.8787393569946289 1.4349976778030396
-2.2042880058288574 -0.575406014919281 1.4172415733337402
-2.205162525177002 -0.2720727324485779 1.3994852304458618
-2.2060370445251465 0.031260669231414795 1.381729006767273
-2.206911563873291 0.3345939815044403 1.363972783088684
-2.2077863216400146 0.6379272937774658 1.3462165594100952
-2.208660840988159 0.941260576248169 1.3284602165222168
-2.2095353603363037 0.941260576248169 1.310703992843628
-2.2095353603363037 0.6379272937774658 1.310703992843628
-2.2095353603363037 0.3345939815044403 1.310703992843628
-2.2095353603363037 0.031260669231414795 1.310703992843628
-2.2095353603363037 -0.2720727324485779 1.310703992843628
-2.2095353603363037 -0.575406014919281 1.310703992843628
-2.2095353603363037 -0.8787393569946289 1.310703992843628
-2.2095353603363037 -1.182072639465332 1.310703992843628
-2.191779136657715 -1.182072639465332 1.3098294734954834
-2.174022912979126 -0.8787393569946289 1.3089549541473389
-2.156266689300537 -0.575406014919281 1.3080803155899048
-2.138510227203369 -0.2720727324485779 1.3072059154510498
-2.1207542419433594 0.031260669231414795 1.3063311576843262
-2.1029977798461914 0.3345939815044403 1.3054566383361816
-2.0852415561676025 0.6379272937774658 1.304582118988037
-2.0674853324890137 0.941260576248169 1.3037077188491821
-2.492832899093628 -1.4854059219360352 -4.441189289093018
-2.4604809284210205 -1.4854059219360352 -3.7843337059020996
-2.428128719329834 -1.4854059219360352 -3.1274783611297607
-2.3957767486572266 -1.4854059219360352 -2.4706225395202637
-2.36342453956604 -1.4854059219360352 -1.8137670755386353
-2.3310725688934326 -1.4854059219360352 -1.1569116115570068
-2.298720359802246 -1.4854059219360352 -0.5000559687614441
-2.2663683891296387 -1.4854059219360352 0.1567995548248291
-2.234016180038452 -1.4854059219360352 0.8136550784111023
-2.2016642093658447 -1.4854059219360352 1.4705106019973755
-2.0086724758148193 -1.4854059219360352 1.4610052108764648
-1.8156806230545044 -1.4854059219360352 1.4514998197555542
-1.6226890087127686 -1.4854059219360352 1.4419944286346436
-1.4296972751617432 -1.4854059219360352 1.4324889183044434
-1.2367055416107178 -1.4854059219360352 1.4229836463928223
-1.0437138080596924 -1.4854059219360352 1.413478136062622
-0.8507220149040222 -1.4854059219360352 1.403972864151001
-0.6577302813529968 -1.4854059219360352 1.3944673538208008
-0.46473854780197144 -1.4854059219360352 1.3849619626998901
-0.6900823712348938 -1.4854059219360352 0.7376118302345276
-0.9154261946678162 -1.4854059219360352 0.09026169776916504
-1.1407699584960938 -1.4854059219360352 -0.5570884346961975
-1.3661139011383057 -1.4854059219360352 -1.2044386863708496
-1.5914576053619385 -1.4854059219360352 -1.8517887592315674
-1.8168014287948608 -1.4854059219360352 -2.499138832092285
-2.042145252227783 -1.4854059219360352 -3.146489143371582
-2.267489194869995 -1.4854059219360352 -3.7938392162323
0.03224387764930725 -1.4854059219360352 0.7020351886749268
0.5292263031005859 -1.4854059219360352 0.01910841464996338
1.026208758354187 -1.4854059219360352 -0.6638184189796448
1.523191213607788 -1.4854059219360352 -1.346745252609253
2.0201737880706787 -1.4854059219360352 -2.029672145843506
2.517155885696411 -1.4854059219360352 -2.7125988006591797
3.0141384601593018 -1.4854059219360352 -3.3955256938934326
3.5111207962036133 -1.4854059219360352 -4.078452110290527
4.008103370666504 -1.4854059219360352 -4.761379241943359
3.2857770919799805 -1.4854059219360352 -4.725802421569824
2.563450813293457 -1.4854059219360352 -4.690226078033447
1.8411245346069336 -1.4854059219360352 -4.654649257659912
1.1187983751296997 -1.4854059219360352 -4.619072914123535
0.39647209644317627 -1.4854059219360352 -4.58349609375
-0.32585418224334717 -1.4854059219360352 -4.547919273376465
-1.0481804609298706 -1.4854059219360352 -4.51234245300293
-1.770506739616394 -1.4854059219360352 -4.476766109466553
0.064596027135849 -1.4854059219360352 1.3588906526565552
0.5939306020736694 -1.4854059219360352 1.3328194618225098
1.1232651472091675 -1.4854059219360352 1.3067480325698853
1.652599811553955 -1.4854059219360352 1.2806768417358398
2.181934356689453 -1.4854059219360352 1.2546055316925049
2.711268663406372 -1.4854059219360352 1.22853422164917
3.240603446960449 -1.4854059219360352 1.202462911605835
3.7699379920959473 -1.4854059219360352 1.1763916015625
4.299272537231445 -1.4854059219360352 1.150320291519165
4.266920566558838 -1.4854059219360352 0.4934648275375366
4.2345685958862305 -1.4854059219360352 -0.16339069604873657
4.202216148376465 -1.4854059219360352 -0.820246160030365
4.169863700866699 -1.4854059219360352 -1.4771016836166382
4.13751220703125 -1.4854059219360352 -2.1339573860168457
4.105159759521484 -1.4854059219360352 -2.7908127307891846
4.072807788848877 -1.4854059219360352 -3.4476683139801025
4.040455341339111 -1.4854059219360352 -4.104523658752441
4.008103370666504 -1.645405888557434 -4.761379241943359
4.040455341339111 -1.6454060077667236 -4.104523658752441
4.072807788848877 -1.645405888557434 -3.4476683139801025
4.105159759521484 -1.6454060077667236 -2.7908127307891846
4.13751220703125 -1.645405888557434 -2.1339573860168457
4.169863700866699 -1.645405888557434 -1.4771016836166382
4.202216148376465 -1.6454060077667236 -0.820246160030365
4.2345685958862305 -1.645405888557434 -0.16339069604873657
4.266920566558838 -1.6454060077667236 0.4934648275375366
4.299272537231445 -1.645405888557434 1.150320291519165
3.7699379920959473 -1.6454060077667236 1.1763916015625
3.240603446960449 -1.645405888557434 1.202462911605835
2.711268663406372 -1.6454060077667236 1.22853422164917
2.181934356689453 -1.645405888557434 1.2546055316925049
1.652599811553955 -1.645405888557434 1.2806768417358398
1.1232651472091675 -1.6454060077667236 1.3067480325698853
0.5939306020736694 -1.645405888557434 1.3328194618225098
0.064596027135849 -1.6454060077667236 1.3588906526565552
-0.46473854780197144 -1.645405888557434 1.3849619626998901
0.03224387764930725 -1.6454060077667236 0.7020351886749268
0.5292263031005859 -1.645405888557434 0.01910841464996338
1.026208758354187 -1.6454060077667236 -0.6638184189796448
1.523191213607788 -1.645405888557434 -1.346745252609253
2.0201737880706787 -1.645405888557434 -2.029672145843506
2.517155885696411 -1.6454060077667236 -2.7125988006591797
3.0141384601593018 -1.645405888557434 -3.3955256938934326
3.5111207962036133 -1.6454060077667236 -4.078452110290527
-0.6900823712348938 -1.6454060077667236 0.7376118302345276
-0.9154261946678162 -1.645405888557434 0.09026169776916504
-1.1407699584960938 -1.6454060077667236 -0.5570884346961975
-1.3661139011383057 -1.645405888557434 -1.2044386863708496
-1.5914576053619385 -1.645405888557434 -1.8517887592315674
-1.8168014287948608 -1.6454060077667236 -2.499138832092285
-2.042145252227783 -1.645405888557434 -3.146489143371582
-2.267489194869995 -1.6454060077667236 -3.7938392162323
-2.492832899093628 -1.645405888557434 -4.441189289093018
-1.770506739616394 -1.6454060077667236 -4.476766109466553
-1.0481804609298706 -1.645405888557434 -4.51234245300293
-0.32585418224334717 -1.6454060077667236 -4.547919273376465
0.39647209644317627 -1.645405888557434 -4.58349609375
1.1187983751296997 -1.645405888557434 -4.619072914123535
1.8411245346069336 -1.6454060077667236 -4.654649257659912
2.563450813293457 -1.645405888557434 -4.690226078033447
3.2857770919799805 -1.6454060077667236 -4.725802421569824
-0.6577302813529968 -1.6454060077667236 1.3944673538208008
-0.8507220149040222 -1.645405888557434 1.403972864151001
-1.0437138080596924 -1.6454060077667236 1.413478136062622
-1.2367055416107178 -1.645405888557434 1.4229836463928223
-1.4296972751617432 -1.645405888557434 1.4324889183044434
-1.6226890087127686 -1.6454060077667236 1.4419944286346436
-1.8156806230545044 -1.645405888557434 1.4514998197555542
-2.0086724758148193 -1.6454060077667236 1.4610052108764648
-2.2016642093658447 -1.645405888557434 1.4705106019973755
-2.234016180038452 -1.6454060077667236 0.8136550784111023
-2.2663683891296387 -1.645405888557434 0.1567995548248291
-2.298720359802246 -1.6454060077667236 -0.5000559687614441
-2.3310725688934326 -1.645405888557434 -1.1569116115570068
-2.36342453956604 -1.645405888557434 -1.8137670755386353
-2.3957767486572266 -1.6454060077667236 -2.4706225395202637
-2.428128719329834 -1.645405888557434 -3.1274783611297607
-2.4604809284210205 -1.6454060077667236 -3.7843337059020996
-0.46473854780197144 -1.5031836032867432 1.3849619626998901
-0.46473854780197144 -1.5209615230560303 1.3849619626998901
