-0.8125746846199036 -0.6066197156906128 -2.111466407775879
-0.8125746846199036 -0.3747904598712921 -2.111466407775879
-0.8125746846199036 -0.14296123385429382 -2.111466407775879
-0.8125746846199036 0.08886796236038208 -2.111466407775879
-0.8125746846199036 0.32069718837738037 -2.111466407775879
0.14133504033088684 -1.5339365005493164 -2.02020001411438
0.14152264595031738 -1.533936619758606 -2.0290870666503906
0.1417102813720703 -1.5339365005493164 -2.0379738807678223
0.14189788699150085 -1.533936619758606 -2.046860933303833
0.14208552241325378 -1.533936619758606 -2.0557477474212646
0.1422731578350067 -1.5339365005493164 -2.0646347999572754
0.14246077835559845 -1.533936619758606 -2.073521614074707
0.142648383975029 -1.5339365005493164 -2.0824084281921387
0.142648383975029 -1.302107334136963 -2.0824084281921387
0.14246077835559845 -1.0702781677246094 -2.073521614074707
0.1422731578350067 -0.8384488821029663 -2.0646347999572754
0.14208552241325378 -0.6066197156906128 -2.0557477474212646
0.14189788699150085 -0.3747904598712921 -2.046860933303833
0.1417102813720703 -0.14296123385429382 -2.0379738807678223
0.14152264595031738 0.08886796236038208 -2.0290870666503906
0.14133504033088684 0.32069718837738037 -2.02020001411438
0.142648383975029 0.5525264143943787 -2.0824084281921387
0.14246077835559845 0.5525264143943787 -2.073521614074707
0.1422731578350067 0.5525264143943787 -2.0646347999572754
0.14208552241325378 0.5525264143943787 -2.0557477474212646
0.14189788699150085 0.5525264143943787 -2.046860933303833
0.1417102813720703 0.5525264143943787 -2.0379738807678223
0.14152264595031738 0.5525264143943787 -2.0290870666503906
0.14133504033088684 0.5525264143943787 -2.02020001411438
0.036491647362709045 0.5525264143943787 -2.0846498012542725
-0.06985270977020264 0.5525264143943787 -2.0780041217803955
-0.1761970818042755 0.5525264143943787 -2.0713584423065186
-0.2825414538383484 0.5525264143943787 -2.0647127628326416
-0.38888582587242126 0.5525264143943787 -2.0580670833587646
-0.49523019790649414 0.5525264143943787 -2.0514214038848877
-0.6015745401382446 0.5525264143943787 -2.0447757244110107
-0.7079188823699951 0.5525264143943787 -2.038130044937134
-0.8127623200416565 0.5525264143943787 -2.1025795936584473
-0.8129498958587646 0.5525264143943787 -2.0936925411224365
-0.8131375312805176 0.5525264143943787 -2.084805727005005
-0.8133251667022705 0.5525264143943787 -2.0759189128875732
-0.8135128021240234 0.5525264143943787 -2.0670318603515625
-0.8137004375457764 0.5525264143943787 -2.058145046234131
-0.8138880133628845 0.5525264143943787 -2.049258232116699
-0.8140756487846375 0.5525264143943787 -2.0403711795806885
-0.8127623200416565 0.32069718837738037 -2.1025795936584473
-0.8129498958587646 0.08886796236038208 -2.0936925411224365
-0.8131375312805176 -0.14296123385429382 -2.084805727005005
-0.8133251667022705 -0.3747904598712921 -2.0759189128875732
-0.8135128021240234 -0.6066197156906128 -2.0670318603515625
-0.8137004375457764 -0.8384488821029663 -2.058145046234131
-0.8138880133628845 -1.0702781677246094 -2.049258232116699
-0.8140756487846375 -1.302107334136963 -2.0403711795806885
-0.8127623200416565 -1.5339365005493164 -2.1025795936584473
-0.8129498958587646 -1.533936619758606 -2.0936925411224365
-0.8131375312805176 -1.5339365005493164 -2.084805727005005
-0.8133251667022705 -1.533936619758606 -2.0759189128875732
-0.8135128021240234 -1.533936619758606 -2.0670318603515625
-0.8137004375457764 -1.5339365005493164 -2.058145046234131
-0.8138880133628845 -1.533936619758606 -2.049258232116699
-0.8140756487846375 -1.5339365005493164 -2.0403711795806885
-0.7066055536270142 -1.5339365005493164 -2.1003382205963135
-0.6006364226341248 -1.533936619758606 -2.089210033416748
-0.49466732144355774 -1.5339365005493164 -2.0780820846557617
-0.38869819045066833 -1.533936619758606 -2.0669538974761963
-0.2827290892601013 -1.533936619758606 -2.055825710296631
-0.17675995826721191 -1.5339365005493164 -2.0446977615356445
-0.0707908347249031 -1.533936619758606 -2.0335693359375
0.0351782888174057 -1.5339365005493164 -2.0224413871765137
-1.0003825426101685 -1.533936858177185 -2.0354135036468506
-0.9797025918960571 -1.533936858177185 -2.0349769592285156
-0.9590226411819458 -1.5339367389678955 -2.0345401763916016
-0.9383426904678345 -1.5339369773864746 -2.0341036319732666
-0.9176627397537231 -1.533936858177185 -2.0336670875549316
-0.8969827890396118 -1.533936858177185 -2.0332305431365967
-0.8763028383255005 -1.5339369773864746 -2.0327939987182617
-0.8556228876113892 -1.5339367389678955 -2.0323572158813477
-0.8349429368972778 -1.533936858177185 -2.0319206714630127
-0.8142629861831665 -1.533936858177185 -2.0314841270446777
-0.8142629861831665 -1.2306034564971924 -2.0314841270446777
-0.8142629861831665 -0.9272701740264893 -2.0314841270446777
-0.8142629861831665 -0.6239368915557861 -2.0314841270446777
-0.8142629861831665 -0.32060354948043823 -2.0314841270446777
-0.8142629861831665 -0.017270147800445557 -2.0314841270446777
-0.8142629861831665 0.28606313467025757 -2.0314841270446777
-0.8142629861831665 0.5893964767456055 -2.0314841270446777
-0.8142629861831665 0.8927297592163086 -2.0314841270446777
-0.8142629861831665 1.1960631608963013 -2.0314841270446777
-0.8349429368972778 0.8927297592163086 -2.0319206714630127
-0.8556228876113892 0.5893964767456055 -2.0323572158813477
-0.8763028383255005 0.28606313467025757 -2.0327939987182617
-0.8969827890396118 -0.017270147800445557 -2.0332305431365967
-0.9176627397537231 -0.32060354948043823 -2.0336670875549316
-0.9383426904678345 -0.6239368915557861 -2.0341036319732666
-0.9590226411819458 -0.9272701740264893 -2.0345401763916016
-0.9797025918960571 -1.2306034564971924 -2.0349769592285156
-0.8349429368972778 1.1960631608963013 -2.0319206714630127
-0.8556228876113892 1.1960631608963013 -2.0323572158813477
-0.8763028383255005 1.1960631608963013 -2.0327939987182617
-0.8969827890396118 1.1960631608963013 -2.0332305431365967
-0.9176627397537231 1.1960631608963013 -2.0336670875549316
-0.9383426904678345 1.1960631608963013 -2.0341036319732666
-0.9590226411819458 1.1960631608963013 -2.0345401763916016
-0.9797025918960571 1.1960631608963013 -2.0349769592285156
-1.0003825426101685 1.1960631608963013 -2.0354135036468506
-1.0003825426101685 0.8927297592163086 -2.0354135036468506
-1.0003825426101685 0.5893964767456055 -2.0354135036468506
-1.0003825426101685 0.28606313467025757 -2.0354135036468506
-1.0003825426101685 -0.017270147800445557 -2.0354135036468506
-1.0003825426101685 -0.32060354948043823 -2.0354135036468506
-1.0003825426101685 -0.6239368915557861 -2.0354135036468506
-1.0003825426101685 -0.9272701740264893 -2.0354135036468506
-1.0003825426101685 -1.2306034564971924 -2.0354135036468506
-0.8142632246017456 -1.533936858177185 -2.0314841270446777
-0.7081064581871033 -1.533936858177185 -2.029242992401123
-0.6019497513771057 -1.5339367389678955 -2.0270016193389893
-0.4957929849624634 -1.5339369773864746 -2.0247604846954346
-0.38963624835014343 -1.533936858177185 -2.022519111633301
-0.2834794819355011 -1.533936858177185 -2.020277976989746
-0.17732274532318115 -1.5339369773864746 -2.0180366039276123
-0.0711660087108612 -1.5339367389678955 -2.0157954692840576
0.03499073535203934 -1.533936858177185 -2.013554096221924
0.14114747941493988 -1.533936858177185 -2.011312961578369
0.14114747941493988 -1.5339367389678955 -2.011312961578369
0.14114747941493988 -1.533936619758606 -2.011312961578369
0.03499073535203934 -1.533936619758606 -2.013554096221924
-0.17732274532318115 -1.5339367389678955 -2.0180366039276123
-0.2834794819355011 -1.5339367389678955 -2.020277976989746
-0.38963624835014343 -1.5339367389678955 -2.022519111633301
-0.4957929849624634 -1.5339367389678955 -2.0247604846954346
-0.7081064581871033 -1.5339367389678955 -2.029242992401123
0.03499073535203934 -1.5339365005493164 -2.013554096221924
-0.0711660087108612 -1.533936619758606 -2.0157954692840576
-0.17732274532318115 -1.5339365005493164 -2.0180366039276123
-0.2834794819355011 -1.533936619758606 -2.020277976989746
-0.38963624835014343 -1.533936619758606 -2.022519111633301
-0.4957929849624634 -1.5339365005493164 -2.0247604846954346
-0.6019497513771057 -1.533936619758606 -2.0270016193389893
-0.7081064581871033 -1.5339365005493164 -2.029242992401123
-0.8142632246017456 -1.533936619758606 -2.0314841270446777
-0.8142632246017456 -1.5339367389678955 -2.0314841270446777
-0.8142632246017456 0.5525263547897339 -2.0314841270446777
-0.7081064581871033 0.5525263547897339 -2.029242992401123
-0.6019497513771057 0.5525263547897339 -2.0270016193389893
-0.4957929849624634 0.5525263547897339 -2.0247604846954346
-0.38963624835014343 0.5525263547897339 -2.022519111633301
-0.2834794819355011 0.5525263547897339 -2.020277976989746
-0.17732274532318115 0.5525263547897339 -2.0180366039276123
-0.0711660087108612 0.5525263547897339 -2.0157954692840576
0.03499073535203934 0.5525263547897339 -2.013554096221924
0.14114747941493988 0.5525263547897339 -2.011312961578369
0.14114747941493988 0.6240304112434387 -2.011312961578369
0.14114747941493988 0.6955345273017883 -2.011312961578369
0.14114747941493988 0.7670385837554932 -2.011312961578369
0.14114747941493988 0.8385426998138428 -2.011312961578369
0.14114747941493988 0.9100468158721924 -2.011312961578369
0.14114747941493988 0.9815508723258972 -2.011312961578369
0.14114747941493988 1.053054928779602 -2.011312961578369
0.14114747941493988 1.1245590448379517 -2.011312961578369
0.14114747941493988 1.1960631608963013 -2.011312961578369
0.03499073535203934 1.1245590448379517 -2.013554096221924
-0.0711660087108612 1.053054928779602 -2.0157954692840576
-0.17732274532318115 0.9815508723258972 -2.0180366039276123
-0.2834794819355011 0.9100468158721924 -2.020277976989746
-0.38963624835014343 0.8385426998138428 -2.022519111633301
-0.4957929849624634 0.7670385837554932 -2.0247604846954346
-0.6019497513771057 0.6955345273017883 -2.0270016193389893
-0.7081064581871033 0.6240304112434387 -2.029242992401123
0.03499073535203934 1.1960631608963013 -2.013554096221924
-0.0711660087108612 1.1960631608963013 -2.0157954692840576
-0.17732274532318115 1.1960631608963013 -2.0180366039276123
-0.2834794819355011 1.1960631608963013 -2.020277976989746
-0.38963624835014343 1.1960631608963013 -2.022519111633301
-0.4957929849624634 1.1960631608963013 -2.0247604846954346
-0.6019497513771057 1.1960631608963013 -2.0270016193389893
-0.7081064581871033 1.1960631608963013 -2.029242992401123
-0.8142632246017456 1.1960631608963013 -2.0314841270446777
-0.8142632246017456 1.1245590448379517 -2.0314841270446777
-0.8142632246017456 1.053054928779602 -2.0314841270446777
-0.8142632246017456 0.9815508723258972 -2.0314841270446777
-0.8142632246017456 0.9100468158721924 -2.0314841270446777
-0.8142632246017456 0.8385426998138428 -2.0314841270446777
-0.8142632246017456 0.7670385837554932 -2.0314841270446777
-0.8142632246017456 0.6955345273017883 -2.0314841270446777
-0.8142632246017456 0.6240304112434387 -2.0314841270446777
0.14114759862422943 -1.533936858177185 -2.011312961578369
0.3189946413040161 -1.533936858177185 -2.0075581073760986
0.4968416690826416 -1.5339367389678955 -2.0038034915924072
0.6746886968612671 -1.5339369773864746 -2.0000486373901367
0.8525357246398926 -1.533936858177185 -1.9962939023971558
1.030382752418518 -1.533936858177185 -1.9925390481948853
1.2082297801971436 -1.5339369773864746 -1.9887843132019043
1.386076807975769 -1.5339367389678955 -1.9850295782089233
1.5639238357543945 -1.533936858177185 -1.9812748432159424
1.74177086353302 -1.533936858177185 -1.9775199890136719
1.74177086353302 -1.2306034564971924 -1.9775199890136719
1.74177086353302 -0.9272701740264893 -1.9775199890136719
1.7417709827423096 -0.6239368915557861 -1.9775199890136719
1.74177086353302 -0.32060354948043823 -1.9775199890136719
1.74177086353302 -0.017270147800445557 -1.9775199890136719
1.7417709827423096 0.28606313467025757 -1.9775199890136719
1.74177086353302 0.5893964767456055 -1.9775199890136719
1.74177086353302 0.8927297592163086 -1.9775199890136719
1.74177086353302 1.1960631608963013 -1.9775199890136719
1.5639238357543945 0.8927297592163086 -1.9812748432159424
1.386076807975769 0.5893964767456055 -1.9850295782089233
1.2082297801971436 0.28606313467025757 -1.9887843132019043
1.030382752418518 -0.017270147800445557 -1.9925390481948853
0.8525357246398926 -0.32060354948043823 -1.9962939023971558
0.6746886968612671 -0.6239368915557861 -2.0000486373901367
0.4968416690826416 -0.9272701740264893 -2.0038034915924072
0.3189946413040161 -1.2306034564971924 -2.0075581073760986
1.5639238357543945 1.1960631608963013 -1.9812748432159424
1.386076807975769 1.1960631608963013 -1.9850295782089233
1.2082297801971436 1.1960631608963013 -1.9887843132019043
1.030382752418518 1.1960631608963013 -1.9925390481948853
0.8525357246398926 1.1960631608963013 -1.9962939023971558
0.6746886968612671 1.1960631608963013 -2.0000486373901367
0.4968416690826416 1.1960631608963013 -2.0038034915924072
0.3189946413040161 1.1960631608963013 -2.0075581073760986
0.14114759862422943 1.1960631608963013 -2.011312961578369
0.14114759862422943 0.8927297592163086 -2.011312961578369
0.14114759862422943 0.5893964767456055 -2.011312961578369
0.14114759862422943 0.28606313467025757 -2.011312961578369
0.14114759862422943 -0.017270147800445557 -2.011312961578369
0.14114759862422943 -0.32060354948043823 -2.011312961578369
0.14114759862422943 -0.6239368915557861 -2.011312961578369
0.14114759862422943 -0.9272701740264893 -2.011312961578369
0.14114759862422943 -1.2306034564971924 -2.011312961578369
1.95270574092865 -1.533936858177185 -1.9730666875839233
2.1636404991149902 -1.5339367389678955 -1.9686132669448853
2.37457537651062 -1.5339369773864746 -1.9641598463058472
2.58551025390625 -1.533936858177185 -1.9597065448760986
2.796444892883301 -1.533936858177185 -1.9552531242370605
3.0073797702789307 -1.5339369773864746 -1.9507997035980225
3.2183146476745605 -1.5339367389678955 -1.9463465213775635
3.4292495250701904 -1.533936858177185 -1.9418929815292358
3.6401844024658203 -1.533936858177185 -1.9374396800994873
3.6401844024658203 -1.4679524898529053 -1.9374396800994873
3.6401844024658203 -1.401968240737915 -1.9374396800994873
3.6401844024658203 -1.3359839916229248 -1.9374396800994873
3.6401844024658203 -1.269999623298645 -1.9374396800994873
3.6401844024658203 -1.2040152549743652 -1.9374396800994873
3.6401844024658203 -1.138031005859375 -1.9374396800994873
3.6401844024658203 -1.0720467567443848 -1.9374396800994873
3.6401844024658203 -1.006062388420105 -1.9374396800994873
3.6401844024658203 -0.9400781393051147 -1.9374396800994873
3.4292495250701904 -1.006062388420105 -1.9418929815292358
3.2183146476745605 -1.0720467567443848 -1.9463465213775635
3.0073797702789307 -1.138031005859375 -1.9507997035980225
2.796444892883301 -1.2040152549743652 -1.9552531242370605
2.58551025390625 -1.269999623298645 -1.9597065448760986
2.37457537651062 -1.3359839916229248 -1.9641598463058472
2.1636404991149902 -1.401968240737915 -1.9686132669448853
1.95270574092865 -1.4679524898529053 -1.9730666875839233
3.4292495250701904 -0.9400781393051147 -1.9418929815292358
3.2183146476745605 -0.9400781393051147 -1.9463465213775635
3.0073797702789307 -0.9400781393051147 -1.9507997035980225
2.796444892883301 -0.9400781393051147 -1.9552531242370605
2.58551025390625 -0.9400781393051147 -1.9597065448760986
2.37457537651062 -0.9400781393051147 -1.9641598463058472
2.1636404991149902 -0.9400781393051147 -1.9686132669448853
1.95270574092865 -0.9400781393051147 -1.9730666875839233
1.74177086353302 -0.9400781393051147 -1.9775199890136719
1.74177086353302 -1.006062388420105 -1.9775199890136719
1.74177086353302 -1.0720467567443848 -1.9775199890136719
1.7417709827423096 -1.138031005859375 -1.9775199890136719
1.74177086353302 -1.2040152549743652 -1.9775199890136719
1.74177086353302 -1.269999623298645 -1.9775199890136719
1.7417709827423096 -1.3359839916229248 -1.9775199890136719
1.74177086353302 -1.401968240737915 -1.9775199890136719
1.74177086353302 -1.4679524898529053 -1.9775199890136719
1.74177086353302 0.6271568536758423 -1.9775199890136719
1.95270574092865 0.6271568536758423 -1.9730666875839233
2.1636404991149902 0.6271568536758423 -1.9686132669448853
2.37457537651062 0.6271568536758423 -1.9641598463058472
2.58551025390625 0.6271568536758423 -1.9597065448760986
2.796444892883301 0.6271568536758423 -1.9552531242370605
3.0073797702789307 0.6271568536758423 -1.9507997035980225
3.2183146476745605 0.6271568536758423 -1.9463465213775635
3.4292495250701904 0.6271568536758423 -1.9418929815292358
3.6401844024658203 0.6271568536758423 -1.9374396800994873
3.6401844024658203 0.69036865234375 -1.9374396800994873
3.6401844024658203 0.7535804510116577 -1.9374396800994873
3.6401844024658203 0.8167922496795654 -1.9374396800994873
3.6401844024658203 0.8800040483474731 -1.9374396800994873
3.6401844024658203 0.9432159662246704 -1.9374396800994873
3.6401844024658203 1.0064277648925781 -1.9374396800994873
3.6401844024658203 1.0696395635604858 -1.9374396800994873
3.6401844024658203 1.1328513622283936 -1.9374396800994873
3.6401844024658203 1.1960631608963013 -1.9374396800994873
3.4292495250701904 1.1328513622283936 -1.9418929815292358
3.2183146476745605 1.0696395635604858 -1.9463465213775635
3.0073797702789307 1.0064277648925781 -1.9507997035980225
2.796444892883301 0.9432159662246704 -1.9552531242370605
2.58551025390625 0.8800040483474731 -1.9597065448760986
2.37457537651062 0.8167922496795654 -1.9641598463058472
2.1636404991149902 0.7535804510116577 -1.9686132669448853
1.95270574092865 0.69036865234375 -1.9730666875839233
3.4292495250701904 1.1960631608963013 -1.9418929815292358
3.2183146476745605 1.1960631608963013 -1.9463465213775635
3.0073797702789307 1.1960631608963013 -1.9507997035980225
2.796444892883301 1.1960631608963013 -1.9552531242370605
2.58551025390625 1.1960631608963013 -1.9597065448760986
2.37457537651062 1.1960631608963013 -1.9641598463058472
2.1636404991149902 1.1960631608963013 -1.9686132669448853
1.95270574092865 1.1960631608963013 -1.9730666875839233
1.74177086353302 1.1328513622283936 -1.9775199890136719
1.74177086353302 1.0696395635604858 -1.9775199890136719
1.7417709827423096 1.0064277648925781 -1.9775199890136719
1.74177086353302 0.9432159662246704 -1.9775199890136719
1.74177086353302 0.8800040483474731 -1.9775199890136719
1.7417709827423096 0.8167922496795654 -1.9775199890136719
1.74177086353302 0.7535804510116577 -1.9775199890136719
1.74177086353302 0.69036865234375 -1.9775199890136719
3.7422051429748535 -1.533936858177185 -1.9352856874465942
3.844226121902466 -1.5339367389678955 -1.9331319332122803
3.946247100830078 -1.5339369773864746 -1.9309779405593872
4.048267841339111 -1.533936858177185 -1.9288239479064941
4.150289058685303 -1.533936858177185 -1.9266700744628906
4.252309799194336 -1.5339369773864746 -1.924516201019287
4.354330539703369 -1.5339367389678955 -1.922362208366394
4.456351280212402 -1.533936858177185 -1.92020845413208
4.558372497558594 -1.533936858177185 -1.918054461479187
4.558372497558594 -1.2306034564971924 -1.918054461479187
4.558372497558594 -0.9272701740264893 -1.918054461479187
4.558372497558594 -0.6239368915557861 -1.918054461479187
4.558372497558594 -0.32060354948043823 -1.9180545806884766
4.558372497558594 -0.017270147800445557 -1.9180545806884766
4.558372497558594 0.28606313467025757 -1.918054461479187
4.558372497558594 0.5893964767456055 -1.918054461479187
4.558372497558594 0.8927297592163086 -1.918054461479187
4.558372497558594 1.1960631608963013 -1.918054461479187
4.456351280212402 0.8927297592163086 -1.92020845413208
4.354330539703369 0.5893964767456055 -1.922362208366394
4.252309799194336 0.28606313467025757 -1.924516201019287
4.150289058685303 -0.017270147800445557 -1.9266700744628906
4.048267841339111 -0.32060354948043823 -1.9288239479064941
3.946247100830078 -0.6239368915557861 -1.9309779405593872
3.844226121902466 -0.9272701740264893 -1.9331319332122803
3.7422051429748535 -1.2306034564971924 -1.9352856874465942
4.456351280212402 1.1960631608963013 -1.92020845413208
4.354330539703369 1.1960631608963013 -1.922362208366394
4.252309799194336 1.1960631608963013 -1.924516201019287
4.150289058685303 1.1960631608963013 -1.9266700744628906
4.048267841339111 1.1960631608963013 -1.9288239479064941
3.946247100830078 1.1960631608963013 -1.9309779405593872
3.844226121902466 1.1960631608963013 -1.9331319332122803
3.7422051429748535 1.1960631608963013 -1.9352856874465942
3.6401844024658203 0.8927297592163086 -1.9374396800994873
3.6401844024658203 0.5893964767456055 -1.9374396800994873
3.6401844024658203 0.28606313467025757 -1.9374396800994873
3.6401844024658203 -0.017270147800445557 -1.9374396800994873
3.6401844024658203 -0.32060354948043823 -1.9374396800994873
3.6401844024658203 -0.6239368915557861 -1.9374396800994873
3.6401844024658203 -0.9272701740264893 -1.9374396800994873
3.6401844024658203 -1.2306034564971924 -1.9374396800994873
3.643561601638794 1.1960631608963013 -2.0974040031433105
3.745582342147827 1.1960631608963013 -2.095250129699707
3.8476033210754395 1.1960631608963013 -2.0930962562561035
3.9496243000030518 1.1960631608963013 -2.0909423828125
4.051645278930664 1.1960631608963013 -2.0887885093688965
4.153666019439697 1.1960631608963013 -2.086634635925293
4.2556867599487305 1.1960631608963013 -2.0844805240631104
4.357707500457764 1.1960631608963013 -2.082326650619507
4.459728240966797 1.1960631608963013 -2.0801727771759033
4.561749458312988 1.1960631608963013 -2.0780189037323
4.459728240966797 0.8927297592163086 -2.0801727771759033
4.357707500457764 0.5893964767456055 -2.082326650619507
4.2556867599487305 0.28606313467025757 -2.0844805240631104
4.153666019439697 -0.017270147800445557 -2.086634635925293
4.051645278930664 -0.32060354948043823 -2.0887885093688965
3.9496243000030518 -0.6239368915557861 -2.0909423828125
3.8476033210754395 -0.9272701740264893 -2.0930962562561035
3.745582342147827 -1.2306034564971924 -2.095250129699707
3.643561601638794 -1.533936858177185 -2.0974040031433105
3.643561601638794 -1.2306034564971924 -2.0974040031433105
3.643561363220215 -0.9272701740264893 -2.0974040031433105
3.643561840057373 -0.6239368915557861 -2.0974040031433105
3.643561601638794 -0.32060354948043823 -2.0974040031433105
3.643561601638794 -0.017270147800445557 -2.0974040031433105
3.643561840057373 0.28606313467025757 -2.0974040031433105
3.643561363220215 0.5893964767456055 -2.0974040031433105
3.643561601638794 0.8927297592163086 -2.0974040031433105
4.561749458312988 0.8927297592163086 -2.0780189037323
4.561749458312988 0.5893964767456055 -2.0780189037323
4.561749458312988 0.28606313467025757 -2.0780189037323
4.561749458312988 -0.017270147800445557 -2.0780189037323
4.561749458312988 -0.32060354948043823 -2.0780189037323
4.561749458312988 -0.6239368915557861 -2.0780189037323
4.561749458312988 -0.9272701740264893 -2.0780189037323
4.561749458312988 -1.2306034564971924 -2.0780189037323
4.561749458312988 -1.533936858177185 -2.0780189037323
4.459728240966797 -1.533936858177185 -2.0801727771759033
4.357707500457764 -1.5339367389678955 -2.082326650619507
4.2556867599487305 -1.5339369773864746 -2.0844805240631104
4.153666019439697 -1.533936858177185 -2.086634635925293
4.051645278930664 -1.533936858177185 -2.0887885093688965
3.9496243000030518 -1.5339369773864746 -2.0909423828125
3.8476033210754395 -1.5339367389678955 -2.0930962562561035
3.745582342147827 -1.533936858177185 -2.095250129699707
1.7451480627059937 1.1960631608963013 -2.137484312057495
1.956082820892334 1.1960631608963013 -2.133030891418457
2.167017698287964 1.1960631608963013 -2.128577470779419
2.3779525756835938 1.1960631608963013 -2.12412428855896
2.5888874530792236 1.1960631608963013 -2.119670867919922
2.7998223304748535 1.1960631608963013 -2.115217447280884
3.0107572078704834 1.1960631608963013 -2.1107640266418457
3.221691846847534 1.1960631608963013 -2.1063108444213867
3.432626724243164 1.1960631608963013 -2.1018574237823486
3.432626724243164 1.1328513622283936 -2.1018574237823486
3.221691846847534 1.0696395635604858 -2.1063108444213867
3.0107572078704834 1.0064277648925781 -2.1107640266418457
2.7998223304748535 0.9432159662246704 -2.115217447280884
2.5888874530792236 0.8800040483474731 -2.119670867919922
2.3779525756835938 0.8167922496795654 -2.12412428855896
2.167017698287964 0.7535804510116577 -2.128577470779419
1.956082820892334 0.69036865234375 -2.133030891418457
1.7451480627059937 0.6271568536758423 -2.137484312057495
1.7451480627059937 0.69036865234375 -2.137484312057495
1.7451480627059937 0.7535804510116577 -2.137484312057495
1.745147943496704 0.8167922496795654 -2.137484312057495
1.7451480627059937 0.8800040483474731 -2.137484312057495
1.7451480627059937 0.9432159662246704 -2.137484312057495
1.745147943496704 1.0064277648925781 -2.137484312057495
1.7451480627059937 1.0696395635604858 -2.137484312057495
1.7451480627059937 1.1328513622283936 -2.137484312057495
3.643561601638794 1.1328513622283936 -2.0974040031433105
3.643561363220215 1.0696395635604858 -2.0974040031433105
3.643561840057373 1.0064277648925781 -2.0974040031433105
3.643561601638794 0.9432159662246704 -2.0974040031433105
3.643561601638794 0.8800040483474731 -2.0974040031433105
3.643561840057373 0.8167922496795654 -2.0974040031433105
3.643561363220215 0.7535804510116577 -2.0974040031433105
3.643561601638794 0.69036865234375 -2.0974040031433105
3.643561601638794 0.6271568536758423 -2.0974040031433105
3.432626724243164 0.6271568536758423 -2.1018574237823486
3.221691846847534 0.6271568536758423 -2.1063108444213867
3.0107572078704834 0.6271568536758423 -2.1107640266418457
2.7998223304748535 0.6271568536758423 -2.115217447280884
2.5888874530792236 0.6271568536758423 -2.119670867919922
2.3779525756835938 0.6271568536758423 -2.12412428855896
2.167017698287964 0.6271568536758423 -2.128577470779419
1.956082820892334 0.6271568536758423 -2.133030891418457
1.7451480627059937 -0.9400781393051147 -2.137484312057495
1.956082820892334 -0.9400781393051147 -2.133030891418457
2.167017698287964 -0.9400781393051147 -2.128577470779419
2.3779525756835938 -0.9400781393051147 -2.12412428855896
2.5888874530792236 -0.9400781393051147 -2.119670867919922
2.7998223304748535 -0.9400781393051147 -2.115217447280884
3.0107572078704834 -0.9400781393051147 -2.1107640266418457
3.221691846847534 -0.9400781393051147 -2.1063108444213867
3.432626724243164 -0.9400781393051147 -2.1018574237823486
3.643561601638794 -0.9400781393051147 -2.0974040031433105
3.432626724243164 -1.006062388420105 -2.1018574237823486
3.221691846847534 -1.0720467567443848 -2.1063108444213867
3.0107572078704834 -1.138031005859375 -2.1107640266418457
2.7998223304748535 -1.2040152549743652 -2.115217447280884
2.5888874530792236 -1.269999623298645 -2.119670867919922
2.3779525756835938 -1.3359839916229248 -2.12412428855896
2.167017698287964 -1.401968240737915 -2.128577470779419
1.956082820892334 -1.4679524898529053 -2.133030891418457
1.7451480627059937 -1.533936858177185 -2.137484312057495
1.7451480627059937 -1.4679524898529053 -2.137484312057495
1.7451480627059937 -1.401968240737915 -2.137484312057495
1.745147943496704 -1.3359839916229248 -2.137484312057495
1.7451480627059937 -1.269999623298645 -2.137484312057495
1.7451480627059937 -1.2040152549743652 -2.137484312057495
1.745147943496704 -1.138031005859375 -2.137484312057495
1.7451480627059937 -1.0720467567443848 -2.137484312057495
1.7451480627059937 -1.006062388420105 -2.137484312057495
3.643561601638794 -1.006062388420105 -2.0974040031433105
3.643561363220215 -1.0720467567443848 -2.0974040031433105
3.643561840057373 -1.138031005859375 -2.0974040031433105
3.643561601638794 -1.2040152549743652 -2.0974040031433105
3.643561601638794 -1.269999623298645 -2.0974040031433105
3.643561840057373 -1.3359839916229248 -2.0974040031433105
3.643561363220215 -1.401968240737915 -2.0974040031433105
3.643561601638794 -1.4679524898529053 -2.0974040031433105
3.432626724243164 -1.533936858177185 -2.1018574237823486
3.221691846847534 -1.5339367389678955 -2.1063108444213867
3.0107572078704834 -1.5339369773864746 -2.1107640266418457
2.7998223304748535 -1.533936858177185 -2.115217447280884
2.5888874530792236 -1.533936858177185 -2.119670867919922
2.3779525756835938 -1.5339369773864746 -2.12412428855896
2.167017698287964 -1.5339367389678955 -2.128577470779419
1.956082820892334 -1.533936858177185 -2.133030891418457
0.14452484250068665 1.1960631608963013 -2.1712772846221924
0.32237187027931213 1.1960631608963013 -2.167522430419922
0.5002188682556152 1.1960631608963013 -2.1637678146362305
0.6780658960342407 1.1960631608963013 -2.16001296043396
0.8559129238128662 1.1960631608963013 -2.1562581062316895
1.0337599515914917 1.1960631608963013 -2.152503490447998
1.2116069793701172 1.1960631608963013 -2.1487486362457275
1.3894540071487427 1.1960631608963013 -2.144993782043457
1.5673010349273682 1.1960631608963013 -2.1412391662597656
1.5673010349273682 0.8927297592163086 -2.1412391662597656
1.3894540071487427 0.5893964767456055 -2.144993782043457
1.2116069793701172 0.28606313467025757 -2.1487486362457275
1.0337599515914917 -0.017270147800445557 -2.152503490447998
0.8559129238128662 -0.32060354948043823 -2.1562581062316895
0.6780658960342407 -0.6239368915557861 -2.16001296043396
0.5002188682556152 -0.9272701740264893 -2.1637678146362305
0.32237187027931213 -1.2306034564971924 -2.167522430419922
0.14452484250068665 -1.533936858177185 -2.1712772846221924
0.14452484250068665 -1.2306034564971924 -2.1712772846221924
0.14452484250068665 -0.9272701740264893 -2.1712772846221924
0.14452484250068665 -0.6239368915557861 -2.1712772846221924
0.14452484250068665 -0.32060354948043823 -2.1712772846221924
0.14452484250068665 -0.017270147800445557 -2.1712772846221924
0.14452484250068665 0.28606313467025757 -2.1712772846221924
0.14452484250068665 0.5893964767456055 -2.1712772846221924
0.14452484250068665 0.8927297592163086 -2.1712772846221924
1.7451480627059937 0.8927297592163086 -2.137484312057495
1.7451480627059937 0.5893964767456055 -2.137484312057495
1.745147943496704 0.28606313467025757 -2.137484312057495
1.7451480627059937 -0.017270147800445557 -2.137484312057495
1.7451480627059937 -0.32060354948043823 -2.137484312057495
1.745147943496704 -0.6239368915557861 -2.137484312057495
1.7451480627059937 -0.9272701740264893 -2.137484312057495
1.7451480627059937 -1.2306034564971924 -2.137484312057495
1.5673010349273682 -1.533936858177185 -2.1412391662597656
1.3894540071487427 -1.5339367389678955 -2.144993782043457
1.2116069793701172 -1.5339369773864746 -2.1487486362457275
1.0337599515914917 -1.533936858177185 -2.152503490447998
0.8559129238128662 -1.533936858177185 -2.1562581062316895
0.6780658960342407 -1.5339369773864746 -2.16001296043396
0.5002188682556152 -1.5339367389678955 -2.1637678146362305
0.32237187027931213 -1.533936858177185 -2.167522430419922
-0.8108859658241272 1.1960631608963013 -2.191448450088501
-0.7047291994094849 1.1960631608963013 -2.1892073154449463
-0.5985724925994873 1.1960631608963013 -2.1869659423828125
-0.49241572618484497 1.1960631608963013 -2.184724807739258
-0.386258989572525 1.1960631608963013 -2.182483434677124
-0.2801022529602051 1.1960631608963013 -2.1802423000335693
-0.17394551634788513 1.1960631608963013 -2.1780009269714355
-0.06778876483440399 1.1960631608963013 -2.175759792327881
0.03836798667907715 1.1960631608963013 -2.173518657684326
0.1445247232913971 1.1960631608963013 -2.1712772846221924
0.03836798667907715 1.1245590448379517 -2.173518657684326
-0.06778876483440399 1.053054928779602 -2.175759792327881
-0.17394551634788513 0.9815508723258972 -2.1780009269714355
-0.2801022529602051 0.9100468158721924 -2.1802423000335693
-0.386258989572525 0.8385426998138428 -2.182483434677124
-0.49241572618484497 0.7670385837554932 -2.184724807739258
-0.5985724925994873 0.6955345273017883 -2.1869659423828125
-0.7047291994094849 0.6240304112434387 -2.1892073154449463
-0.8108859658241272 0.5525263547897339 -2.191448450088501
-0.8108859658241272 0.6240304112434387 -2.191448450088501
-0.8108859658241272 0.6955345273017883 -2.191448450088501
-0.8108859658241272 0.7670385837554932 -2.191448450088501
-0.8108859658241272 0.8385426998138428 -2.191448450088501
-0.8108859658241272 0.9100468158721924 -2.191448450088501
-0.8108859658241272 0.9815508723258972 -2.191448450088501
-0.8108859658241272 1.053054928779602 -2.191448450088501
-0.8108859658241272 1.1245590448379517 -2.191448450088501
0.1445247232913971 1.1245590448379517 -2.1712772846221924
0.1445247232913971 1.053054928779602 -2.1712772846221924
0.1445247232913971 0.9815508723258972 -2.1712772846221924
0.1445247232913971 0.9100468158721924 -2.1712772846221924
0.1445247232913971 0.8385426998138428 -2.1712772846221924
0.1445247232913971 0.7670385837554932 -2.1712772846221924
0.1445247232913971 0.6955345273017883 -2.1712772846221924
0.1445247232913971 0.6240304112434387 -2.1712772846221924
0.1445247232913971 0.5525263547897339 -2.1712772846221924
0.03836798667907715 0.5525263547897339 -2.173518657684326
-0.06778876483440399 0.5525263547897339 -2.175759792327881
-0.17394551634788513 0.5525263547897339 -2.1780009269714355
-0.2801022529602051 0.5525263547897339 -2.1802423000335693
-0.386258989572525 0.5525263547897339 -2.182483434677124
-0.49241572618484497 0.5525263547897339 -2.184724807739258
-0.5985724925994873 0.5525263547897339 -2.1869659423828125
-0.7047291994094849 0.5525263547897339 -2.1892073154449463
-0.8108859658241272 -1.533936619758606 -2.191448450088501
-0.7047291994094849 -1.5339365005493164 -2.1892073154449463
-0.5985724925994873 -1.533936619758606 -2.1869659423828125
-0.49241572618484497 -1.5339365005493164 -2.184724807739258
-0.386258989572525 -1.533936619758606 -2.182483434677124
-0.2801022529602051 -1.533936619758606 -2.1802423000335693
-0.17394551634788513 -1.5339365005493164 -2.1780009269714355
-0.06778876483440399 -1.533936619758606 -2.175759792327881
0.03836798667907715 -1.5339365005493164 -2.173518657684326
0.1445247232913971 -1.533936619758606 -2.1712772846221924
0.03836798667907715 -1.533936619758606 -2.173518657684326
-0.06778876483440399 -1.5339367389678955 -2.175759792327881
-0.17394551634788513 -1.5339367389678955 -2.1780009269714355
-0.2801022529602051 -1.5339367389678955 -2.1802423000335693
-0.386258989572525 -1.5339367389678955 -2.182483434677124
-0.49241572618484497 -1.5339367389678955 -2.184724807739258
-0.5985724925994873 -1.5339367389678955 -2.1869659423828125
-0.7047291994094849 -1.5339367389678955 -2.1892073154449463
-0.8108859658241272 -1.533936858177185 -2.191448450088501
-0.8108859658241272 -1.5339367389678955 -2.191448450088501
0.1445247232913971 -1.5339367389678955 -2.1712772846221924
0.1445247232913971 -1.533936858177185 -2.1712772846221924
0.03836798667907715 -1.533936858177185 -2.173518657684326
-0.17394551634788513 -1.5339369773864746 -2.1780009269714355
-0.2801022529602051 -1.533936858177185 -2.1802423000335693
-0.386258989572525 -1.533936858177185 -2.182483434677124
-0.49241572618484497 -1.5339369773864746 -2.184724807739258
-0.7047291994094849 -1.533936858177185 -2.1892073154449463
-0.9970053434371948 1.1960631608963013 -2.195377826690674
-0.9763253927230835 1.1960631608963013 -2.194941282272339
-0.9556454420089722 1.1960631608963013 -2.194504737854004
-0.9349654912948608 1.1960631608963013 -2.19406795501709
-0.9142854809761047 1.1960631608963013 -2.193631410598755
-0.8936055898666382 1.1960631608963013 -2.19319486618042
-0.8729255795478821 1.1960631608963013 -2.192758321762085
-0.8522456288337708 1.1960631608963013 -2.19232177734375
-0.8315656781196594 1.1960631608963013 -2.191884994506836
-0.8108857274055481 1.1960631608963013 -2.191448450088501
-0.8315656781196594 0.8927297592163086 -2.191884994506836
-0.8522456288337708 0.5893964767456055 -2.19232177734375
-0.8729255795478821 0.28606313467025757 -2.192758321762085
-0.8936055898666382 -0.017270147800445557 -2.19319486618042
-0.9142854809761047 -0.32060354948043823 -2.193631410598755
-0.9349654912948608 -0.6239368915557861 -2.19406795501709
-0.9556454420089722 -0.9272701740264893 -2.194504737854004
-0.9763253927230835 -1.2306034564971924 -2.194941282272339
-0.9970053434371948 -1.533936858177185 -2.195377826690674
-0.9970053434371948 -1.2306034564971924 -2.195377826690674
-0.9970053434371948 -0.9272701740264893 -2.195377826690674
-0.9970053434371948 -0.6239368915557861 -2.195377826690674
-0.9970053434371948 -0.32060354948043823 -2.195377826690674
-0.9970053434371948 -0.017270147800445557 -2.195377826690674
-0.9970053434371948 0.28606313467025757 -2.195377826690674
-0.9970053434371948 0.5893964767456055 -2.195377826690674
-0.9970053434371948 0.8927297592163086 -2.195377826690674
-0.8108856678009033 0.8927297592163086 -2.191448450088501
-0.8108857274055481 0.5893964767456055 -2.191448450088501
-0.8108856678009033 0.28606313467025757 -2.191448450088501
-0.8108857274055481 -0.017270147800445557 -2.191448450088501
-0.8108857274055481 -0.32060354948043823 -2.191448450088501
-0.8108856678009033 -0.6239368915557861 -2.191448450088501
-0.8108857274055481 -0.9272701740264893 -2.191448450088501
-0.8108856678009033 -1.2306034564971924 -2.191448450088501
-0.8108857274055481 -1.533936858177185 -2.191448450088501
-0.8315656781196594 -1.533936858177185 -2.191884994506836
-0.8522456288337708 -1.5339367389678955 -2.19232177734375
-0.8729255795478821 -1.5339369773864746 -2.192758321762085
-0.8936055898666382 -1.533936858177185 -2.19319486618042
-0.9142854809761047 -1.533936858177185 -2.193631410598755
-0.9349654912948608 -1.5339369773864746 -2.19406795501709
-0.9556454420089722 -1.5339367389678955 -2.194504737854004
-0.9763253927230835 -1.533936858177185 -2.194941282272339
0.14114747941493988 -1.302107334136963 -2.011312961578369
0.14114747941493988 -1.0702781677246094 -2.011312961578369
0.14114747941493988 -0.8384489417076111 -2.011312961578369
0.14114747941493988 -0.6066197752952576 -2.011312961578369
0.14114747941493988 -0.3747904896736145 -2.011312961578369
0.14114747941493988 -0.1429612934589386 -2.011312961578369
0.14114747941493988 0.08886793255805969 -2.011312961578369
0.14114747941493988 0.3206971287727356 -2.011312961578369
0.14152273535728455 0.5525263547897339 -2.0290868282318115
0.14189797639846802 0.5525263547897339 -2.046860694885254
0.14227323234081268 0.5525263547897339 -2.064634323120117
0.14264848828315735 0.5525263547897339 -2.0824081897735596
0.14302372932434082 0.5525263547897339 -2.100182056427002
0.1433989703655243 0.5525263547897339 -2.1179559230804443
0.14377422630786896 0.5525263547897339 -2.1357297897338867
0.14414948225021362 0.5525263547897339 -2.15350341796875
0.14414948225021362 0.3206971287727356 -2.15350341796875
0.14377422630786896 0.08886793255805969 -2.1357297897338867
0.1433989703655243 -0.1429612934589386 -2.1179559230804443
0.14302372932434082 -0.3747904896736145 -2.100182056427002
0.14264848828315735 -0.6066197752952576 -2.0824081897735596
0.14227323234081268 -0.8384489417076111 -2.064634323120117
0.14189797639846802 -1.0702781677246094 -2.046860694885254
0.14152273535728455 -1.302107334136963 -2.0290868282318115
0.1445247232913971 0.3206971287727356 -2.1712772846221924
0.1445247232913971 0.08886793255805969 -2.1712772846221924
0.1445247232913971 -0.1429612934589386 -2.1712772846221924
0.1445247232913971 -0.3747904896736145 -2.1712772846221924
0.1445247232913971 -0.6066197752952576 -2.1712772846221924
0.1445247232913971 -0.8384489417076111 -2.1712772846221924
0.1445247232913971 -1.0702781677246094 -2.1712772846221924
0.1445247232913971 -1.302107334136963 -2.1712772846221924
0.14414948225021362 -1.5339365005493164 -2.15350341796875
0.14377422630786896 -1.533936619758606 -2.1357297897338867
0.1433989703655243 -1.5339365005493164 -2.1179559230804443
0.14302372932434082 -1.533936619758606 -2.100182056427002
0.14264848828315735 -1.533936619758606 -2.0824081897735596
0.14227323234081268 -1.5339365005493164 -2.064634323120117
0.14189797639846802 -1.533936619758606 -2.046860694885254
0.14152273535728455 -1.5339365005493164 -2.0290868282318115
-0.8138879537582397 0.5525263547897339 -2.04925799369812
-0.8135127425193787 0.5525263547897339 -2.0670318603515625
-0.8131374716758728 0.5525263547897339 -2.084805488586426
-0.8127622604370117 0.5525263547897339 -2.102579355239868
-0.8123869895935059 0.5525263547897339 -2.1203532218933105
-0.81201171875 0.5525263547897339 -2.138127088546753
-0.8116364479064941 0.5525263547897339 -2.1559009552001953
-0.8112612366676331 0.5525263547897339 -2.1736745834350586
-0.7051044702529907 0.5525263547897339 -2.171433448791504
-0.5993229746818542 0.5525263547897339 -2.1514182090759277
-0.4935414791107178 0.5525263547897339 -2.1314032077789307
-0.3877599835395813 0.5525263547897339 -2.1113882064819336
-0.2819784879684448 0.5525263547897339 -2.0913732051849365
-0.17619699239730835 0.5525263547897339 -2.0713582038879395
-0.07041551172733307 0.5525263547897339 -2.0513429641723633
0.035365983843803406 0.5525263547897339 -2.031327962875366
-0.8142632246017456 0.3206971287727356 -2.0314841270446777
-0.8142632246017456 0.08886793255805969 -2.0314841270446777
-0.8142632246017456 -0.1429612934589386 -2.0314841270446777
-0.8142632246017456 -0.3747904896736145 -2.0314841270446777
-0.8142632246017456 -0.6066197752952576 -2.0314841270446777
-0.8142632246017456 -0.8384489417076111 -2.0314841270446777
-0.8142632246017456 -1.0702781677246094 -2.0314841270446777
-0.8142632246017456 -1.302107334136963 -2.0314841270446777
-0.8138879537582397 -1.5339365005493164 -2.04925799369812
-0.8135127425193787 -1.533936619758606 -2.0670318603515625
-0.8131374716758728 -1.5339365005493164 -2.084805488586426
-0.8127622604370117 -1.533936619758606 -2.102579355239868
-0.8123869895935059 -1.533936619758606 -2.1203532218933105
-0.81201171875 -1.5339365005493164 -2.138127088546753
-0.8116364479064941 -1.533936619758606 -2.1559009552001953
-0.8112612366676331 -1.5339365005493164 -2.1736745834350586
-0.8112612366676331 -1.302107334136963 -2.1736745834350586
-0.8116364479064941 -1.0702781677246094 -2.1559009552001953
-0.81201171875 -0.8384489417076111 -2.138127088546753
-0.8123869895935059 -0.6066197752952576 -2.1203532218933105
-0.8127622604370117 -0.3747904896736145 -2.102579355239868
-0.8131374716758728 -0.1429612934589386 -2.084805488586426
-0.8135127425193787 0.08886793255805969 -2.0670318603515625
-0.8138879537582397 0.3206971287727356 -2.04925799369812
-0.8108859658241272 -1.302107334136963 -2.191448450088501
-0.8108859658241272 -1.0702781677246094 -2.191448450088501
-0.8108859658241272 -0.8384489417076111 -2.191448450088501
-0.8108859658241272 -0.6066197752952576 -2.191448450088501
-0.8108859658241272 -0.3747904896736145 -2.191448450088501
-0.8108859658241272 -0.1429612934589386 -2.191448450088501
-0.8108859658241272 0.08886793255805969 -2.191448450088501
-0.8108859658241272 0.3206971287727356 -2.191448450088501
3.640559673309326 -0.9400781393051147 -1.9552134275436401
3.640934944152832 -0.9400781393051147 -1.972987413406372
3.641310214996338 -0.9400781393051147 -1.9907610416412354
3.6416852474212646 -0.9400781393051147 -2.0085349082946777
3.6420607566833496 -0.9400781393051147 -2.02630877494812
3.6424360275268555 -0.9400781393051147 -2.0440826416015625
3.6428110599517822 -0.9400781393051147 -2.061856508255005
3.643186330795288 -0.9400781393051147 -2.079630136489868
3.432251453399658 -0.9400781393051147 -2.0840835571289062
3.2209413051605225 -0.9400781393051147 -2.070763111114502
3.009631395339966 -0.9400781393051147 -2.0574426651000977
2.79832124710083 -0.9400781393051147 -2.0441222190856934
2.5870110988616943 -0.9400781393051147 -2.030801773071289
2.3757011890411377 -0.9400781393051147 -2.0174813270568848
2.164391040802002 -0.9400781393051147 -2.0041608810424805
1.9530808925628662 -0.9400781393051147 -1.9908404350280762
1.7447727918624878 -0.9400781393051147 -2.1197104454040527
1.744397521018982 -0.9400781393051147 -2.1019365787506104
1.7440223693847656 -0.9400781393051147 -2.084162950515747
1.7436470985412598 -0.9400781393051147 -2.0663890838623047
1.743271827697754 -0.9400781393051147 -2.0486152172088623
1.742896556854248 -0.9400781393051147 -2.03084135055542
1.7425214052200317 -0.9400781393051147 -2.0130677223205566
1.7421461343765259 -0.9400781393051147 -1.9952938556671143
3.6401844024658203 -0.7659409046173096 -1.9374396800994873
3.6401844024658203 -0.5918037295341492 -1.9374396800994873
3.6401844024658203 -0.417666494846344 -1.9374396800994873
3.6401844024658203 -0.2435292899608612 -1.9374396800994873
3.6401844024658203 -0.06939208507537842 -1.9374396800994873
3.6401844024658203 0.10474511981010437 -1.9374396800994873
3.6401844024658203 0.27888232469558716 -1.9374396800994873
3.6401844024658203 0.45301952958106995 -1.9374396800994873
3.6401844024658203 0.6271567344665527 -1.9374396800994873
3.640559673309326 0.6271567344665527 -1.9552134275436401
3.640934944152832 0.6271567344665527 -1.972987413406372
3.641310214996338 0.6271567344665527 -1.9907610416412354
3.6416852474212646 0.6271567344665527 -2.0085349082946777
3.6420607566833496 0.6271567344665527 -2.02630877494812
3.6424360275268555 0.6271567344665527 -2.0440826416015625
3.6428110599517822 0.6271567344665527 -2.061856508255005
3.643186330795288 0.6271567344665527 -2.079630136489868
3.643561601638794 0.6271567344665527 -2.0974040031433105
3.643186330795288 0.45301952958106995 -2.079630136489868
3.6428110599517822 0.27888232469558716 -2.061856508255005
3.6424360275268555 0.10474511981010437 -2.0440826416015625
3.6420607566833496 -0.06939208507537842 -2.02630877494812
3.6416852474212646 -0.2435292899608612 -2.0085349082946777
3.641310214996338 -0.417666494846344 -1.9907610416412354
3.640934944152832 -0.5918037295341492 -1.972987413406372
3.640559673309326 -0.7659409046173096 -1.9552134275436401
3.643561601638794 0.45301952958106995 -2.0974040031433105
3.643561363220215 0.27888232469558716 -2.0974040031433105
3.643561840057373 0.10474511981010437 -2.0974040031433105
3.643561601638794 -0.06939208507537842 -2.0974040031433105
3.643561601638794 -0.2435292899608612 -2.0974040031433105
3.643561840057373 -0.417666494846344 -2.0974040031433105
3.643561363220215 -0.5918037295341492 -2.0974040031433105
3.643561601638794 -0.7659409046173096 -2.0974040031433105
3.4292495250701904 0.6271567344665527 -1.9418929815292358
3.2183146476745605 0.6271567344665527 -1.9463465213775635
3.0073797702789307 0.6271567344665527 -1.9507997035980225
2.796444892883301 0.6271567344665527 -1.9552531242370605
2.58551025390625 0.6271567344665527 -1.9597065448760986
2.37457537651062 0.6271567344665527 -1.9641598463058472
2.1636404991149902 0.6271567344665527 -1.9686132669448853
1.95270574092865 0.6271567344665527 -1.9730666875839233
1.74177086353302 0.6271567344665527 -1.9775199890136719
1.7421461343765259 0.6271567344665527 -1.9952938556671143
1.7425214052200317 0.6271567344665527 -2.0130677223205566
1.742896556854248 0.6271567344665527 -2.03084135055542
1.743271827697754 0.6271567344665527 -2.0486152172088623
1.7436470985412598 0.6271567344665527 -2.0663890838623047
1.7440223693847656 0.6271567344665527 -2.084162950515747
1.744397521018982 0.6271567344665527 -2.1019365787506104
1.7447727918624878 0.6271567344665527 -2.1197104454040527
1.7451480627059937 0.6271567344665527 -2.137484312057495
1.9557076692581177 0.6271567344665527 -2.1152570247650146
2.166267156600952 0.6271567344665527 -2.0930299758911133
