-1.6193779706954956 -0.19175338745117188 -3.63649582862854
-1.777723789215088 -0.4128060042858124 -3.619682550430298
-1.9360697269439697 -0.6338586807250977 -3.6028690338134766
-2.0944156646728516 -0.8549112677574158 -3.5860557556152344
-2.2527613639831543 -1.0759639739990234 -3.569242477416992
-0.9181320667266846 1.1345624923706055 -3.7109549045562744
-1.1669611930847168 1.1345624923706055 -3.6845335960388184
-1.4157905578613281 1.1345624923706055 -3.6581130027770996
-1.6646196842193604 1.1345624923706055 -3.6316919326782227
-1.9134488105773926 1.1345624923706055 -3.6052708625793457
-2.162278175354004 1.1345624923706055 -3.578850030899048
-2.411107301712036 1.1345624923706055 -3.55242919921875
-2.4111075401306152 0.864387035369873 -3.55242919921875
-2.411107301712036 0.5942115783691406 -3.55242919921875
-2.411107301712036 0.3240361511707306 -3.55242919921875
-2.411107301712036 0.05386066436767578 -3.55242919921875
-2.411107301712036 -0.21631479263305664 -3.55242919921875
-2.411107301712036 -0.4864902198314667 -3.55242919921875
-2.411107301712036 -0.7566657066345215 -3.55242919921875
-2.4111075401306152 -1.026841163635254 -3.55242919921875
-2.4280011653900146 1.1345624923706055 -3.7115347385406494
-2.1791720390319824 1.1345624923706055 -3.7379555702209473
-1.9303427934646606 1.1345624923706055 -3.764376640319824
-1.6815136671066284 1.1345624923706055 -3.790797710418701
-1.4326844215393066 1.1345624923706055 -3.817218542098999
-1.1838552951812744 1.1345624923706055 -3.843639373779297
-0.9350261092185974 1.1345624923706055 -3.870060443878174
-0.6861969232559204 1.1345624923706055 -3.8964812755584717
-0.8445427417755127 0.9135098457336426 -3.8796677589416504
-1.0028886795043945 0.6924571990966797 -3.8628547191619873
-1.1612344980239868 0.4714045524597168 -3.846041202545166
-1.319580316543579 0.2503519356250763 -3.829227924346924
-1.4779261350631714 0.029299259185791016 -3.8124146461486816
-1.6362719535827637 -0.19175338745117188 -3.7956013679504395
-1.794617772102356 -0.4128060042858124 -3.7787880897521973
-1.9529637098312378 -0.6338586807250977 -3.761974573135376
-2.11130952835083 -0.8549112677574158 -3.745161533355713
-2.269655227661133 -1.0759639739990234 -3.7283480167388916
-2.4280011653900146 -1.2970166206359863 -3.7115347385406494
-2.4280009269714355 -1.026841163635254 -3.7115345001220703
-2.4280011653900146 -0.7566657066345215 -3.7115347385406494
-2.4280011653900146 -0.4864902198314667 -3.7115345001220703
-2.4280011653900146 -0.21631479263305664 -3.7115347385406494
-2.4280011653900146 0.05386066436767578 -3.7115347385406494
-2.4280011653900146 0.3240361511707306 -3.7115345001220703
-2.4280011653900146 0.5942115783691406 -3.7115347385406494
-2.4280009269714355 0.864387035369873 -3.7115345001220703
-0.6861969232559204 0.864387035369873 -3.8964812755584717
-0.6861969232559204 0.5942115783691406 -3.8964812755584717
-0.6861969232559204 0.3240361511707306 -3.8964810371398926
-0.6861969232559204 0.05386066436767578 -3.8964810371398926
-0.6861969232559204 -0.21631479263305664 -3.8964810371398926
-0.6861969232559204 -0.4864902198314667 -3.8964810371398926
-0.6861969232559204 -0.7566657066345215 -3.8964812755584717
-0.6861969232559204 -1.026841163635254 -3.8964812755584717
-0.6861969232559204 -1.2970166206359863 -3.8964812755584717
-0.9350261092185974 -1.2970166206359863 -3.870060443878174
-1.1838552951812744 -1.2970166206359863 -3.843639373779297
-1.4326844215393066 -1.2970166206359863 -3.817218542098999
-1.6815136671066284 -1.2970166206359863 -3.790797710418701
-1.9303427934646606 -1.2970166206359863 -3.764376640319824
-2.1791720390319824 -1.2970166206359863 -3.7379555702209473
-0.9326126575469971 1.1345624923706055 -3.8473310470581055
-1.1790283918380737 1.1345624923706055 -3.79818058013916
-1.42544424533844 1.1345624923706055 -3.749030590057373
-1.6718599796295166 1.1345624923706055 -3.6998801231384277
-1.9182757139205933 1.1345624923706055 -3.6507296562194824
-2.164691686630249 1.1345624923706055 -3.601579427719116
-2.1767585277557373 -1.2970166206359863 -3.715226173400879
-1.92551589012146 -1.2970166206359863 -3.7189178466796875
-1.6742733716964722 -1.2970166206359863 -3.722609519958496
-1.4230307340621948 -1.2970166206359863 -3.7263009548187256
-1.1717880964279175 -1.2970166206359863 -3.729992389678955
-0.9205455183982849 -1.2970166206359863 -3.7336843013763428
-0.684319794178009 -1.026841163635254 -3.87880277633667
-0.6824426651000977 -0.7566657066345215 -3.8611245155334473
-0.680565595626831 -0.4864902198314667 -3.8434460163116455
-0.6786884665489197 -0.21631479263305664 -3.8257675170898438
-0.6768113374710083 0.05386066436767578 -3.808089256286621
-0.6749342083930969 0.3240361511707306 -3.7904109954833984
-0.6730570793151855 0.5942115783691406 -3.7727324962615967
-0.671180009841919 0.864387035369873 -3.755054235458374
-2.426124095916748 0.864387035369873 -3.6938562393188477
-2.4242470264434814 0.5942115783691406 -3.676177978515625
-2.422369956970215 0.3240361511707306 -3.6584994792938232
-2.4204928874969482 0.05386066436767578 -3.6408212184906006
-2.4186155796051025 -0.21631479263305664 -3.623142719268799
-2.416738510131836 -0.4864902198314667 -3.605464458465576
-2.4148614406585693 -0.7566657066345215 -3.5877859592437744
-2.4129843711853027 -1.026841163635254 -3.5701074600219727
1.2830426692962646 -1.2970166206359863 -1.7664614915847778
1.580815315246582 -1.2970166206359863 -1.7980793714523315
1.580815315246582 -1.026841163635254 -1.798079490661621
1.580815315246582 -0.7566657066345215 -1.7980793714523315
1.580815315246582 -0.4864902198314667 -1.798079490661621
1.580815315246582 -0.21631479263305664 -1.7980793714523315
1.580815315246582 0.05386066436767578 -1.7980793714523315
1.580815315246582 0.3240361511707306 -1.798079490661621
1.580815315246582 0.5942115783691406 -1.7980793714523315
1.580815315246582 0.864387035369873 -1.798079490661621
1.580815315246582 1.1345624923706055 -1.7980793714523315
1.5477294921875 0.864387035369873 -1.7945663928985596
1.514643669128418 0.5942115783691406 -1.7910531759262085
1.4815577268600464 0.3240361511707306 -1.7875401973724365
1.448472023010254 0.05386066436767578 -1.7840269804000854
1.4153859615325928 -0.21631479263305664 -1.780513882637024
1.3823001384735107 -0.4864902198314667 -1.777000904083252
1.3492143154144287 -0.7566657066345215 -1.7734876871109009
1.3161286115646362 -1.026841163635254 -1.769974708557129
1.2830426692962646 1.1345624923706055 -1.7664614915847778
1.2830426692962646 0.864387035369873 -1.7664616107940674
1.2830426692962646 0.5942115783691406 -1.7664614915847778
1.2830426692962646 0.3240361511707306 -1.7664616107940674
1.2830426692962646 0.05386066436767578 -1.7664614915847778
1.2830426692962646 -0.21631479263305664 -1.7664614915847778
1.2830426692962646 -0.4864902198314667 -1.7664616107940674
1.2830426692962646 -0.7566657066345215 -1.7664614915847778
1.2830426692962646 -1.026841163635254 -1.7664616107940674
1.266148567199707 1.1345624923706055 -1.9255670309066772
1.5639212131500244 1.1345624923706055 -1.957184910774231
1.5308353900909424 0.864387035369873 -1.9536716938018799
1.4977495670318604 0.5942115783691406 -1.950158715248108
1.4646636247634888 0.3240361511707306 -1.9466454982757568
1.4315778017044067 0.05386066436767578 -1.9431325197219849
1.3984919786453247 -0.21631479263305664 -1.9396194219589233
1.3654060363769531 -0.4864902198314667 -1.9361062049865723
1.332320213317871 -0.7566657066345215 -1.9325932264328003
1.299234390258789 -1.026841163635254 -1.9290800094604492
1.266148567199707 -1.2970166206359863 -1.9255670309066772
1.266148567199707 -1.026841163635254 -1.9255669116973877
1.266148567199707 -0.7566657066345215 -1.9255670309066772
1.266148567199707 -0.4864902198314667 -1.9255669116973877
1.266148567199707 -0.21631479263305664 -1.9255670309066772
1.266148567199707 0.05386066436767578 -1.9255670309066772
1.266148567199707 0.3240361511707306 -1.9255669116973877
1.266148567199707 0.5942115783691406 -1.9255670309066772
1.266148567199707 0.864387035369873 -1.9255669116973877
1.5639212131500244 0.864387035369873 -1.9571847915649414
1.5639212131500244 0.5942115783691406 -1.957184910774231
1.5639212131500244 0.3240361511707306 -1.9571847915649414
1.5639212131500244 0.05386066436767578 -1.957184910774231
1.5639212131500244 -0.21631479263305664 -1.957184910774231
1.5639212131500244 -0.4864902198314667 -1.9571847915649414
1.5639212131500244 -0.7566657066345215 -1.957184910774231
1.5639212131500244 -1.026841163635254 -1.9571847915649414
1.5639212131500244 -1.2970166206359863 -1.957184910774231
1.5657984018325806 -1.026841163635254 -1.9395065307617188
1.5676754713058472 -0.7566657066345215 -1.9218281507492065
1.5695525407791138 -0.4864902198314667 -1.9041497707366943
1.57142972946167 -0.21631479263305664 -1.8864713907241821
1.5733067989349365 0.05386066436767578 -1.8687928915023804
1.5751838684082031 0.3240361511707306 -1.8511145114898682
1.5770611763000488 0.5942115783691406 -1.833436131477356
1.5789381265640259 0.864387035369873 -1.8157577514648438
1.2680256366729736 0.864387035369873 -1.907888650894165
1.2699028253555298 0.5942115783691406 -1.8902102708816528
1.2717798948287964 0.3240361511707306 -1.8725318908691406
1.2736570835113525 0.05386066436767578 -1.8548535108566284
1.2755341529846191 -0.21631479263305664 -1.8371750116348267
1.2774112224578857 -0.4864902198314667 -1.8194966316223145
1.279288411140442 -0.7566657066345215 -1.8018182516098022
1.281165599822998 -1.026841163635254 -1.78413987159729
3.0816116333007812 -1.2970165014266968 -1.9668811559677124
2.93335223197937 -1.0872900485992432 -1.9502058029174805
2.785093307495117 -0.8775635361671448 -1.933530330657959
2.636833906173706 -0.6678370833396912 -1.9168548583984375
2.488574743270874 -0.45811066031455994 -1.900179386138916
2.340315580368042 -0.24838417768478394 -1.883504033088684
2.19205641746521 -0.038657695055007935 -1.8668285608291626
2.043797254562378 0.1710687279701233 -1.8501532077789307
1.895538091659546 0.3807952404022217 -1.8334777355194092
1.7472788095474243 0.5905216932296753 -1.8168022632598877
1.5990196466445923 0.8002481460571289 -1.8001269102096558
1.895538091659546 0.8002481460571289 -1.8334777355194092
2.19205641746521 0.8002481460571289 -1.8668285608291626
2.488574743270874 0.8002481460571289 -1.900179386138916
2.785093307495117 0.8002481460571289 -1.933530330657959
3.0816116333007812 0.8002481460571289 -1.9668811559677124
3.0816116333007812 0.5380900502204895 -1.9668811559677124
3.0816116333007812 0.2759319841861725 -1.9668811559677124
3.0816116333007812 0.013773918151855469 -1.9668811559677124
3.0816116333007812 -0.24838417768478394 -1.9668811559677124
3.0816116333007812 -0.5105422735214233 -1.9668811559677124
3.0816116333007812 -0.772700309753418 -1.9668811559677124
3.0816116333007812 -1.0348584651947021 -1.9668811559677124
2.785093307495117 -1.2970163822174072 -1.933530330657959
2.488574743270874 -1.2970165014266968 -1.900179386138916
2.19205641746521 -1.2970165014266968 -1.8668285608291626
1.895538091659546 -1.2970163822174072 -1.8334777355194092
1.5990196466445923 -1.2970165014266968 -1.8001269102096558
1.5990196466445923 -1.0348584651947021 -1.8001269102096558
1.5990196466445923 -0.772700309753418 -1.8001269102096558
1.5990196466445923 -0.5105422735214233 -1.8001267910003662
1.5990196466445923 -0.24838417768478394 -1.8001269102096558
1.5990196466445923 0.013773918151855469 -1.8001267910003662
1.5990196466445923 0.2759319841861725 -1.8001269102096558
1.5990196466445923 0.5380900502204895 -1.8001269102096558
1.6079612970352173 0.8002481460571289 -1.7206281423568726
1.6079612970352173 0.5380900502204895 -1.7206281423568726
1.6079612970352173 0.2759319841861725 -1.7206281423568726
1.6079612970352173 0.013773918151855469 -1.7206281423568726
1.6079612970352173 -0.24838417768478394 -1.7206281423568726
1.6079612970352173 -0.5105422735214233 -1.7206281423568726
1.6079612970352173 -0.772700309753418 -1.7206281423568726
1.6079612970352173 -1.0348584651947021 -1.7206281423568726
1.6079612970352173 -1.2970165014266968 -1.7206281423568726
1.904479742050171 -1.2970163822174072 -1.753978967666626
2.200998067855835 -1.2970165014266968 -1.787329912185669
2.497516632080078 -1.2970165014266968 -1.8206807374954224
2.794034957885742 -1.2970163822174072 -1.8540315628051758
3.0905532836914062 -1.2970165014266968 -1.8873823881149292
2.942294120788574 -1.0872900485992432 -1.8707070350646973
2.794034957885742 -0.8775635361671448 -1.8540315628051758
2.64577579498291 -0.6678370833396912 -1.8373560905456543
2.497516632080078 -0.45811066031455994 -1.8206807374954224
2.349257230758667 -0.24838417768478394 -1.8040052652359009
2.200998067855835 -0.038657695055007935 -1.787329912185669
2.052738904953003 0.1710687279701233 -1.7706544399261475
1.904479742050171 0.3807952404022217 -1.753978967666626
1.7562204599380493 0.5905216932296753 -1.737303614616394
3.0905532836914062 0.8002481460571289 -1.8873823881149292
2.794034957885742 0.8002481460571289 -1.8540315628051758
2.497516632080078 0.8002481460571289 -1.8206807374954224
2.200998067855835 0.8002481460571289 -1.787329912185669
1.904479742050171 0.8002481460571289 -1.753978967666626
3.0905532836914062 -1.0348584651947021 -1.8873823881149292
3.0905532836914062 -0.772700309753418 -1.8873823881149292
3.0905532836914062 -0.5105422735214233 -1.8873822689056396
3.0905532836914062 -0.24838417768478394 -1.8873823881149292
3.0905532836914062 0.013773918151855469 -1.8873822689056396
3.0905532836914062 0.2759319841861725 -1.8873823881149292
3.0905532836914062 0.5380900502204895 -1.8873823881149292
1.6068435907363892 -1.0348584651947021 -1.7305655479431152
1.605725884437561 -0.772700309753418 -1.7405028343200684
1.604608178138733 -0.5105422735214233 -1.7504401206970215
1.6034904718399048 -0.24838417768478394 -1.7603775262832642
1.6023727655410767 0.013773918151855469 -1.7703148126602173
1.6012550592422485 0.2759319841861725 -1.78025221824646
1.6001373529434204 0.5380900502204895 -1.790189504623413
1.90269136428833 0.8002481460571289 -1.7698787450790405
2.1974215507507324 0.8002481460571289 -1.8191293478012085
2.4921514987945557 0.8002481460571289 -1.8683799505233765
2.786881685256958 0.8002481460571289 -1.9176305532455444
3.089435577392578 0.5380900502204895 -1.8973196744918823
3.08831787109375 0.2759319841861725 -1.907257080078125
3.087200164794922 0.013773918151855469 -1.9171943664550781
3.0860824584960938 -0.24838417768478394 -1.9271317720413208
3.0849647521972656 -0.5105422735214233 -1.9370691776275635
3.0838470458984375 -0.772700309753418 -1.9470064640045166
3.0827293395996094 -1.0348584651947021 -1.9569438695907593
2.7922465801239014 -1.2970163822174072 -1.8699313402175903
2.4939398765563965 -1.2970165014266968 -1.852480173110962
2.1956331729888916 -1.2970165014266968 -1.835029125213623
1.8973263502120972 -1.2970163822174072 -1.8175779581069946
3.9958879947662354 -1.2970166206359863 -2.069714307785034
3.691129207611084 -1.2970166206359863 -2.0354366302490234
3.3863706588745117 -1.2970166206359863 -2.0011589527130127
3.0816118717193604 -1.2970166206359863 -1.966881275177002
3.0816118717193604 -1.026841163635254 -1.966881275177002
3.0816121101379395 -0.7566657066345215 -1.966881275177002
3.0816116333007812 -0.4864902198314667 -1.966881275177002
3.0816118717193604 -0.21631479263305664 -1.966881275177002
3.0816118717193604 0.05386066436767578 -1.966881275177002
3.0816116333007812 0.3240361511707306 -1.966881275177002
3.0816121101379395 0.5942115783691406 -1.966881275177002
3.0816118717193604 0.864387035369873 -1.966881275177002
3.0816118717193604 1.1345624923706055 -1.966881275177002
3.173039436340332 0.8914045691490173 -1.9771645069122314
3.264467239379883 0.6482466459274292 -1.98744797706604
3.3558945655822754 0.40508875250816345 -1.9977312088012695
3.447322368621826 0.1619308590888977 -2.008014678955078
3.538749933242798 -0.08122706413269043 -2.0182976722717285
3.6301774978637695 -0.32438498735427856 -2.028581142425537
3.721605062484741 -0.5675429105758667 -2.0388643741607666
3.813032627105713 -0.8107007741928101 -2.049147844314575
3.9044604301452637 -1.053858757019043 -2.0594310760498047
3.3863706588745117 1.1345624923706055 -2.0011589527130127
3.691129207611084 1.1345624923706055 -2.0354366302490234
3.9958879947662354 1.1345624923706055 -2.069714307785034
3.9958879947662354 0.864387035369873 -2.069714307785034
3.9958877563476562 0.5942115783691406 -2.069714307785034
3.9958882331848145 0.3240361511707306 -2.069714307785034
3.9958879947662354 0.05386066436767578 -2.069714307785034
3.9958879947662354 -0.21631479263305664 -2.069714307785034
3.9958882331848145 -0.4864902198314667 -2.069714307785034
3.9958877563476562 -0.7566657066345215 -2.069714307785034
3.9958879947662354 -1.026841163635254 -2.069714307785034
2.7850935459136963 -1.2970166206359863 -1.9335304498672485
2.488574981689453 -1.2970166206359863 -1.9001796245574951
2.192056655883789 -1.2970166206359863 -1.8668286800384521
1.8955384492874146 -1.2970166206359863 -1.8334777355194092
1.599020004272461 -1.2970166206359863 -1.8001269102096558
1.599020004272461 -1.2970163822174072 -1.8001269102096558
1.8955384492874146 -1.2970165014266968 -1.8334777355194092
2.192056655883789 -1.2970163822174072 -1.8668286800384521
1.8955384492874146 -1.2970163822174072 -1.8334777355194092
2.488574981689453 -1.2970163822174072 -1.9001796245574951
2.7850935459136963 -1.2970163822174072 -1.9335304498672485
3.0816118717193604 -1.2970163822174072 -1.966881275177002
3.0816118717193604 0.8002479672431946 -1.966881275177002
2.7850935459136963 0.8002479076385498 -1.9335304498672485
2.488574981689453 0.8002479672431946 -1.9001796245574951
2.192056655883789 0.8002479672431946 -1.8668286800384521
1.8955384492874146 0.8002479076385498 -1.8334777355194092
1.599020004272461 0.8002479672431946 -1.8001269102096558
1.599020004272461 1.1345624923706055 -1.8001269102096558
1.846118688583374 1.078843355178833 -1.8279192447662354
2.093217372894287 1.02312433719635 -1.8557116985321045
2.340315818786621 0.9674052000045776 -1.8835041522979736
2.587414503097534 0.9116861820220947 -1.9112963676452637
2.8345131874084473 0.855967104434967 -1.9390889406204224
1.8955384492874146 1.1345624923706055 -1.8334777355194092
2.192056655883789 1.1345624923706055 -1.8668286800384521
2.488574981689453 1.1345624923706055 -1.9001796245574951
2.7850935459136963 1.1345624923706055 -1.9335304498672485
1.5990201234817505 -1.2970166206359863 -1.8001269102096558
1.580815315246582 -1.2970166206359863 -1.7980793714523315
1.580815315246582 -1.026841163635254 -1.798079490661621
1.580815315246582 -0.7566657066345215 -1.7980793714523315
1.580815315246582 -0.4864902198314667 -1.798079490661621
1.580815315246582 -0.21631479263305664 -1.7980793714523315
1.580815315246582 0.05386066436767578 -1.7980793714523315
1.580815315246582 0.3240361511707306 -1.798079490661621
1.580815315246582 0.5942115783691406 -1.7980793714523315
1.580815315246582 0.864387035369873 -1.798079490661621
1.580815315246582 1.1345624923706055 -1.7980793714523315
1.5828380584716797 0.864387035369873 -1.798306941986084
1.5848608016967773 0.5942115783691406 -1.7985343933105469
1.586883544921875 0.3240361511707306 -1.7987618446350098
1.5889062881469727 0.05386066436767578 -1.7989892959594727
1.5909290313720703 -0.21631479263305664 -1.799216866493225
1.5929518938064575 -0.4864902198314667 -1.7994444370269775
1.5949745178222656 -0.7566657066345215 -1.7996718883514404
1.5969973802566528 -1.026841163635254 -1.7998993396759033
1.5990201234817505 1.1345624923706055 -1.8001269102096558
1.5990201234817505 0.864387035369873 -1.8001269102096558
1.599020004272461 0.5942115783691406 -1.8001269102096558
1.59902024269104 0.3240361511707306 -1.8001267910003662
1.5990201234817505 0.05386066436767578 -1.8001267910003662
1.5990201234817505 -0.21631479263305664 -1.8001267910003662
1.59902024269104 -0.4864902198314667 -1.8001267910003662
1.599020004272461 -0.7566657066345215 -1.8001269102096558
1.5990201234817505 -1.026841163635254 -1.8001269102096558
1.6169034242630005 1.1345624923706055 -1.641129493713379
1.5986984968185425 1.1345624923706055 -1.6390819549560547
1.6007212400436401 0.864387035369873 -1.6393094062805176
1.6027441024780273 0.5942115783691406 -1.63953697681427
1.604766845703125 0.3240361511707306 -1.6397645473480225
1.6067895889282227 0.05386066436767578 -1.6399919986724854
1.6088123321533203 -0.21631479263305664 -1.6402194499969482
1.610835075378418 -0.4864902198314667 -1.6404469013214111
1.6128579378128052 -0.7566657066345215 -1.6406744718551636
1.6148806810379028 -1.026841163635254 -1.6409019231796265
1.6169034242630005 -1.2970166206359863 -1.641129493713379
1.6169034242630005 -1.026841163635254 -1.641129493713379
1.61690354347229 -0.7566657066345215 -1.641129493713379
1.616903305053711 -0.4864902198314667 -1.641129493713379
1.6169034242630005 -0.21631479263305664 -1.641129493713379
1.6169034242630005 0.05386066436767578 -1.641129493713379
1.616903305053711 0.3240361511707306 -1.641129493713379
1.61690354347229 0.5942115783691406 -1.641129493713379
1.6169034242630005 0.864387035369873 -1.641129493713379
1.5986984968185425 0.864387035369873 -1.6390819549560547
1.5986984968185425 0.5942115783691406 -1.6390819549560547
1.5986984968185425 0.3240361511707306 -1.6390819549560547
1.5986984968185425 0.05386066436767578 -1.6390819549560547
1.5986984968185425 -0.21631479263305664 -1.6390819549560547
1.5986984968185425 -0.4864902198314667 -1.6390819549560547
1.5986984968185425 -0.7566657066345215 -1.6390819549560547
1.5986984968185425 -1.026841163635254 -1.6390819549560547
1.5986984968185425 -1.2970166206359863 -1.6390819549560547
3.0994951725006104 1.1345624923706055 -1.807883858680725
2.8029768466949463 1.1345624923706055 -1.7745330333709717
2.506458282470703 1.1345624923706055 -1.7411820888519287
2.209939956665039 1.1345624923706055 -1.7078311443328857
1.913421630859375 1.1345624923706055 -1.6744804382324219
1.616903305053711 1.1345624923706055 -1.641129493713379
1.864001989364624 1.078843355178833 -1.668921947479248
2.111100673675537 1.02312433719635 -1.696714162826538
2.358199119567871 0.9674052000045776 -1.7245066165924072
2.6052980422973633 0.9116861820220947 -1.7522990703582764
2.8523964881896973 0.855967104434967 -1.780091404914856
3.0994951725006104 0.8002479672431946 -1.807883858680725
1.616903305053711 0.8002479672431946 -1.641129493713379
1.913421630859375 0.8002479076385498 -1.6744804382324219
2.209939956665039 0.8002479672431946 -1.7078311443328857
2.506458282470703 0.8002479672431946 -1.7411820888519287
2.8029768466949463 0.8002479076385498 -1.7745330333709717
3.0994951725006104 -1.2970163822174072 -1.807883858680725
2.8029768466949463 -1.2970163822174072 -1.7745330333709717
2.506458282470703 -1.2970163822174072 -1.7411820888519287
2.209939956665039 -1.2970163822174072 -1.7078311443328857
1.913421630859375 -1.2970163822174072 -1.6744804382324219
1.616903305053711 -1.2970163822174072 -1.641129493713379
1.913421630859375 -1.2970165014266968 -1.6744804382324219
2.506458282470703 -1.2970166206359863 -1.7411820888519287
2.8029768466949463 -1.2970166206359863 -1.7745330333709717
3.0994951725006104 -1.2970166206359863 -1.807883858680725
1.616903305053711 -1.2970166206359863 -1.641129493713379
1.913421630859375 -1.2970166206359863 -1.6744804382324219
2.209939956665039 -1.2970166206359863 -1.7078311443328857
4.0137715339660645 1.1345624923706055 -1.9107170104980469
3.709012985229492 1.1345624923706055 -1.8764393329620361
3.4042539596557617 1.1345624923706055 -1.8421615362167358
3.190922737121582 0.8914045691490173 -1.8181672096252441
3.282350540161133 0.6482466459274292 -1.8284504413604736
3.3737783432006836 0.40508875250816345 -1.8387337923049927
3.465205669403076 0.1619308590888977 -1.8490171432495117
3.556633472442627 -0.08122706413269043 -1.8593003749847412
3.6480610370635986 -0.32438498735427856 -1.8695838451385498
3.7394886016845703 -0.5675429105758667 -1.8798670768737793
3.830916166305542 -0.8107007741928101 -1.8901504278182983
3.9223437309265137 -1.053858757019043 -1.9004336595535278
4.0137715339660645 -1.2970166206359863 -1.9107170104980469
4.0137715339660645 -1.026841163635254 -1.9107170104980469
4.0137715339660645 -0.7566657066345215 -1.9107170104980469
4.0137715339660645 -0.4864902198314667 -1.9107170104980469
4.0137715339660645 -0.21631479263305664 -1.9107170104980469
4.0137715339660645 0.05386066436767578 -1.9107170104980469
4.0137715339660645 0.3240361511707306 -1.9107170104980469
4.0137715339660645 0.5942115783691406 -1.9107170104980469
4.0137715339660645 0.864387035369873 -1.9107170104980469
3.0994954109191895 0.864387035369873 -1.807883858680725
3.0994951725006104 0.5942115783691406 -1.807883858680725
3.0994954109191895 0.3240361511707306 -1.8078837394714355
3.0994951725006104 0.05386066436767578 -1.8078837394714355
3.0994951725006104 -0.21631479263305664 -1.8078837394714355
3.0994954109191895 -0.4864902198314667 -1.8078837394714355
3.0994951725006104 -0.7566657066345215 -1.807883858680725
3.0994954109191895 -1.026841163635254 -1.807883858680725
3.4042539596557617 -1.2970166206359863 -1.8421615362167358
3.709012985229492 -1.2970166206359863 -1.8764393329620361
1.599020004272461 -1.0348583459854126 -1.8001269102096558
1.599020004272461 -0.7727002501487732 -1.8001269102096558
1.599020004272461 -0.5105421543121338 -1.8001267910003662
1.599020004272461 -0.24838414788246155 -1.8001269102096558
1.599020004272461 0.013773888349533081 -1.8001267910003662
1.599020004272461 0.2759319543838501 -1.8001269102096558
1.599020004272461 0.5380899906158447 -1.8001269102096558
1.599020004272461 0.8002480864524841 -1.8001269102096558
1.616903305053711 0.8002480864524841 -1.641129493713379
1.6146678924560547 0.5380899906158447 -1.6610041856765747
1.6124324798583984 0.2759319543838501 -1.6808788776397705
1.6101970672607422 0.013773888349533081 -1.7007534503936768
1.607961654663086 -0.24838414788246155 -1.720628261566162
1.6057262420654297 -0.5105421543121338 -1.7405028343200684
1.6034908294677734 -0.7727002501487732 -1.7603775262832642
1.6012554168701172 -1.0348583459854126 -1.78025221824646
1.616903305053711 0.5380899906158447 -1.641129493713379
1.616903305053711 0.2759319543838501 -1.641129493713379
1.616903305053711 0.013773888349533081 -1.641129493713379
1.616903305053711 -0.24838414788246155 -1.641129493713379
1.616903305053711 -0.5105421543121338 -1.641129493713379
1.616903305053711 -0.7727002501487732 -1.641129493713379
1.616903305053711 -1.0348583459854126 -1.641129493713379
1.8955384492874146 0.8002480864524841 -1.8334777355194092
2.192056655883789 0.8002480864524841 -1.8668286800384521
2.4885754585266113 0.8002480864524841 -1.9001796245574951
2.7850935459136963 0.8002480864524841 -1.9335304498672485
3.0816121101379395 0.8002480864524841 -1.966881275177002
3.0994951725006104 0.8002480864524841 -1.807883858680725
2.8494160175323486 0.8002480864524841 -1.8065910339355469
2.599336862564087 0.8002480268478394 -1.805298089981079
2.349257469177246 0.8002480864524841 -1.8040053844451904
2.0991783142089844 0.8002480268478394 -1.8027124404907227
1.8490991592407227 0.8002480864524841 -1.801419734954834
2.8029768466949463 0.8002480864524841 -1.7745330333709717
2.506458282470703 0.8002480864524841 -1.7411820888519287
2.209939956665039 0.8002480864524841 -1.7078311443328857
1.913421630859375 0.8002480864524841 -1.6744804382324219
3.0816121101379395 0.5380899906158447 -1.966881275177002
3.0816121101379395 0.2759319543838501 -1.966881275177002
3.0816121101379395 0.013773888349533081 -1.966881275177002
3.0816121101379395 -0.24838414788246155 -1.966881275177002
3.0816121101379395 -0.5105421543121338 -1.966881275177002
3.0816121101379395 -0.7727002501487732 -1.966881275177002
3.0816121101379395 -1.0348583459854126 -1.966881275177002
3.0816121101379395 -1.2970163822174072 -1.966881275177002
3.097259759902954 -1.0348583459854126 -1.827758550643921
3.095024585723877 -0.7727002501487732 -1.8476332426071167
3.0927891731262207 -0.5105421543121338 -1.8675079345703125
3.0905537605285645 -0.24838414788246155 -1.8873825073242188
3.088318347930908 0.013773888349533081 -1.9072571992874146
3.086082935333252 0.2759319543838501 -1.9271318912506104
3.0838475227355957 0.5380899906158447 -1.9470067024230957
3.0994951725006104 -1.0348583459854126 -1.807883858680725
3.0994951725006104 -0.7727002501487732 -1.807883858680725
3.0994951725006104 -0.5105421543121338 -1.807883858680725
3.0994951725006104 -0.24838414788246155 -1.807883858680725
3.0994951725006104 0.013773888349533081 -1.807883858680725
3.0994951725006104 0.2759319543838501 -1.807883858680725
3.0994951725006104 0.5380899906158447 -1.807883858680725
3.727546453475952 1.1345624923706055 -2.0395326614379883
3.459205150604248 1.1345624923706055 -2.0093510150909424
3.190863847732544 1.1345624923706055 -1.9791693687438965
2.9225223064422607 1.1345624923706055 -1.9489877223968506
2.6541810035705566 1.1345624923706055 -1.9188059568405151
2.3858394622802734 1.1345624923706055 -1.8886244297027588
2.1174981594085693 1.1345624923706055 -1.8584426641464233
1.8491566181182861 1.1345624923706055 -1.828261137008667
1.8650529384613037 1.1345624923706055 -1.6869299411773682
2.1314072608947754 1.1345624923706055 -1.7347780466079712
2.397761821746826 1.1345624923706055 -1.7826261520385742
2.6641159057617188 1.1345624923706055 -1.8304741382598877
2.9304704666137695 1.1345624923706055 -1.8783221244812012
3.1968250274658203 1.1345624923706055 -1.9261701107025146
3.463179111480713 1.1345624923706055 -1.9740182161331177
3.7295336723327637 1.1345624923706055 -2.0218663215637207
1.8670399188995361 1.1345624923706055 -1.6692636013031006
2.1353814601898193 1.1345624923706055 -1.699445366859436
2.4037227630615234 1.1345624923706055 -1.729627013206482
2.6720643043518066 1.1345624923706055 -1.7598086595535278
2.94040584564209 1.1345624923706055 -1.7899904251098633
3.208747386932373 1.1345624923706055 -1.8201720714569092
3.477088689804077 1.1345624923706055 -1.8503535985946655
3.7454299926757812 1.1345624923706055 -1.880535364151001
3.0816121101379395 -1.2970166206359863 -1.966881275177002
3.691129446029663 -1.2970166206359863 -2.0354366302490234
3.703051805496216 -1.2970166206359863 -1.9294383525848389
3.392332077026367 -1.2970166206359863 -1.9481598138809204
1.59671151638031 -1.026841163635254 -1.6567482948303223
1.594724416732788 -0.7566657066345215 -1.6744147539138794
1.5927374362945557 -0.4864902198314667 -1.6920812129974365
1.5907504558563232 -0.21631479263305664 -1.709747552871704
1.5887634754180908 0.05386066436767578 -1.7274138927459717
1.5867763757705688 0.3240361511707306 -1.7450802326202393
1.5847893953323364 0.5942115783691406 -1.7627465724945068
1.5828022956848145 0.864387035369873 -1.780413031578064
4.011784553527832 0.864387035369873 -1.9283833503723145
4.0097975730896 0.5942115783691406 -1.946049690246582
4.007810592651367 0.3240361511707306 -1.9637160301208496
4.005823135375977 0.05386066436767578 -1.9813824892044067
4.003836154937744 -0.21631479263305664 -1.9990489482879639
4.001849174499512 -0.4864902198314667 -2.0167150497436523
3.9998619556427 -0.7566657066345215 -2.034381628036499
3.9978749752044678 -1.026841163635254 -2.0520479679107666
1.6256705522537231 -1.2970166206359863 -0.934098482131958
1.610718846321106 -1.2970166206359863 -1.2220921516418457
1.5957670211791992 -1.2970166206359863 -1.5100858211517334
1.580815315246582 -1.2970166206359863 -1.7980793714523315
1.580815315246582 -1.026841163635254 -1.798079490661621
1.580815315246582 -0.7566657066345215 -1.7980793714523315
1.580815315246582 -0.4864902198314667 -1.798079490661621
1.580815315246582 -0.21631479263305664 -1.7980793714523315
1.580815315246582 0.05386066436767578 -1.7980793714523315
1.580815315246582 0.3240361511707306 -1.798079490661621
1.580815315246582 0.5942115783691406 -1.7980793714523315
1.580815315246582 0.864387035369873 -1.798079490661621
1.580815315246582 1.1345624923706055 -1.7980793714523315
1.5853008031845093 0.8914045691490173 -1.7116813659667969
1.5897862911224365 0.6482466459274292 -1.625283122062683
1.5942718982696533 0.40508875250816345 -1.5388851165771484
1.5987573862075806 0.1619308590888977 -1.4524869918823242
1.6032428741455078 -0.08122706413269043 -1.3660888671875
1.6077284812927246 -0.32438498735427856 -1.2796907424926758
1.6122139692306519 -0.5675429105758667 -1.1932927370071411
1.616699457168579 -0.8107007741928101 -1.1068947315216064
1.621185064315796 -1.053858757019043 -1.0204966068267822
1.5957670211791992 1.1345624923706055 -1.5100858211517334
1.610718846321106 1.1345624923706055 -1.2220921516418457
1.6256705522537231 1.1345624923706055 -0.934098482131958
1.6256705522537231 0.864387035369873 -0.934098482131958
1.6256704330444336 0.5942115783691406 -0.934098482131958
1.6256706714630127 0.3240361511707306 -0.934098482131958
1.6256705522537231 0.05386066436767578 -0.934098482131958
1.6256705522537231 -0.21631479263305664 -0.934098482131958
1.6256706714630127 -0.4864902198314667 -0.934098482131958
1.6256704330444336 -0.7566657066345215 -0.934098482131958
1.6256705522537231 -1.026841163635254 -0.934098482131958
1.4658857583999634 1.1345624923706055 -0.9258029460906982
1.4509340524673462 1.1345624923706055 -1.213796615600586
1.4359822273254395 1.1345624923706055 -1.5017902851104736
1.4210305213928223 1.1345624923706055 -1.7897838354110718
1.4255160093307495 0.8914045691490173 -1.703385829925537
1.4300014972686768 0.6482466459274292 -1.616987705230713
1.4344871044158936 0.40508875250816345 -1.5305895805358887
1.4389727115631104 0.1619308590888977 -1.4441914558410645
1.443458080291748 -0.08122706413269043 -1.3577933311462402
1.4479436874389648 -0.32438498735427856 -1.2713953256607056
1.4524292945861816 -0.5675429105758667 -1.1849972009658813
1.4569146633148193 -0.8107007741928101 -1.0985991954803467
1.4614002704620361 -1.053858757019043 -1.0122010707855225
1.4658857583999634 -1.2970166206359863 -0.9258029460906982
1.4658856391906738 -1.026841163635254 -0.9258029460906982
1.4658857583999634 -0.7566657066345215 -0.9258029460906982
1.4658857583999634 -0.4864902198314667 -0.9258029460906982
1.4658857583999634 -0.21631479263305664 -0.9258029460906982
1.4658857583999634 0.05386066436767578 -0.9258029460906982
1.4658857583999634 0.3240361511707306 -0.9258029460906982
1.4658857583999634 0.5942115783691406 -0.9258029460906982
1.4658856391906738 0.864387035369873 -0.9258029460906982
1.4210305213928223 0.864387035369873 -1.7897839546203613
1.4210305213928223 0.5942115783691406 -1.7897838354110718
1.4210305213928223 0.3240361511707306 -1.7897839546203613
1.4210305213928223 0.05386066436767578 -1.7897838354110718
1.4210305213928223 -0.21631479263305664 -1.7897838354110718
1.4210305213928223 -0.4864902198314667 -1.7897839546203613
1.4210305213928223 -0.7566657066345215 -1.7897838354110718
1.4210305213928223 -1.026841163635254 -1.7897839546203613
1.4210305213928223 -1.2970166206359863 -1.7897838354110718
1.4359822273254395 -1.2970166206359863 -1.5017902851104736
1.4509340524673462 -1.2970166206359863 -1.213796615600586
1.4892438650131226 1.1345624923706055 -1.5045554637908936
1.5574572086334229 1.1345624923706055 -1.2193269729614258
1.5041956901550293 -1.2970166206359863 -1.2165617942810059
1.5425055027008057 -1.2970166206359863 -1.5073206424713135
1.4387844800949097 -1.026841163635254 -1.790705680847168
1.456538200378418 -0.7566657066345215 -1.791627287864685
1.4742920398712158 -0.4864902198314667 -1.7925491333007812
1.4920458793640137 -0.21631479263305664 -1.7934707403182983
1.5097999572753906 0.05386066436767578 -1.794392466545105
1.527553677558899 0.3240361511707306 -1.7953143119812012
1.5453076362609863 0.5942115783691406 -1.7962359189987183
1.5630614757537842 0.864387035369873 -1.7971577644348145
1.4836395978927612 0.864387035369873 -0.9267246723175049
1.5013935565948486 0.5942115783691406 -0.9276463985443115
1.5191473960876465 0.3240361511707306 -0.9285681247711182
1.5369012355804443 0.05386066436767578 -0.9294898509979248
1.5546550750732422 -0.21631479263305664 -0.9304115772247314
1.5724090337753296 -0.4864902198314667 -0.9313333034515381
1.590162754058838 -0.7566657066345215 -0.9322550296783447
1.6079165935516357 -1.026841163635254 -0.9331767559051514
3.0723259449005127 -1.2970166206359863 -1.1068148612976074
2.7829947471618652 -1.2970166206359863 -1.0722715854644775
2.493663787841797 -1.2970166206359863 -1.0377283096313477
2.2043328285217285 -1.2970166206359863 -1.0031850337982178
1.915001630783081 -1.2970166206359863 -0.9686417579650879
1.6256705522537231 -1.2970166206359863 -0.9340984225273132
1.6256705522537231 -1.026841163635254 -0.9340984225273132
1.6256704330444336 -0.7566657066345215 -0.9340984225273132
1.6256706714630127 -0.4864902198314667 -0.9340984225273132
1.6256705522537231 -0.21631479263305664 -0.9340983629226685
1.6256705522537231 0.05386066436767578 -0.9340983629226685
1.6256706714630127 0.3240361511707306 -0.9340984225273132
1.6256704330444336 0.5942115783691406 -0.9340984225273132
1.6256705522537231 0.864387035369873 -0.9340984225273132
1.6256705522537231 1.1345624923706055 -0.9340984225273132
1.757184624671936 0.9135098457336426 -0.9497999548912048
1.8886988162994385 0.6924571990966797 -0.9655013680458069
2.0202128887176514 0.4714045524597168 -0.9812029004096985
2.1517271995544434 0.2503519356250763 -0.9969043731689453
2.2832412719726562 0.029299259185791016 -1.012605905532837
2.414755344390869 -0.19175338745117188 -1.0283074378967285
2.546269416809082 -0.4128060042858124 -1.0440088510513306
2.677783489227295 -0.6338586807250977 -1.0597103834152222
2.809297561645508 -0.8549112677574158 -1.0754119157791138
2.9408118724823 -1.0759639739990234 -1.0911133289337158
1.915001630783081 1.1345624923706055 -0.9686417579650879
2.2043328285217285 1.1345624923706055 -1.0031850337982178
2.493663787841797 1.1345624923706055 -1.0377283096313477
2.7829947471618652 1.1345624923706055 -1.0722715854644775
3.0723259449005127 1.1345624923706055 -1.1068148612976074
3.0723259449005127 0.864387035369873 -1.1068148612976074
3.0723259449005127 0.5942115783691406 -1.1068148612976074
3.0723259449005127 0.3240361511707306 -1.1068148612976074
3.0723259449005127 0.05386066436767578 -1.1068148612976074
3.0723259449005127 -0.21631479263305664 -1.1068148612976074
3.0723259449005127 -0.4864902198314667 -1.1068148612976074
3.0723259449005127 -0.7566657066345215 -1.1068148612976074
3.0723259449005127 -1.026841163635254 -1.1068148612976074
3.0912935733795166 1.1345624923706055 -0.9479430913925171
2.8019626140594482 1.1345624923706055 -0.9133998155593872
2.512631416320801 1.1345624923706055 -0.8788565397262573
2.2233004570007324 1.1345624923706055 -0.8443132638931274
1.9339693784713745 1.1345624923706055 -0.8097699284553528
1.6446382999420166 1.1345624923706055 -0.7752266526222229
1.776152491569519 0.9135098457336426 -0.7909281253814697
1.9076664447784424 0.6924571990966797 -0.8066295981407166
2.0391807556152344 0.4714045524597168 -0.8223311901092529
2.1706948280334473 0.2503519356250763 -0.838032603263855
2.30220890045166 0.029299259185791016 -0.8537341356277466
2.433722972869873 -0.19175338745117188 -0.8694356083869934
2.565237045288086 -0.4128060042858124 -0.8851370811462402
2.696751117706299 -0.6338586807250977 -0.9008386135101318
2.8282651901245117 -0.8549112677574158 -0.9165401458740234
2.9597795009613037 -1.0759639739990234 -0.9322416186332703
3.0912935733795166 -1.2970166206359863 -0.9479430913925171
3.0912935733795166 -1.026841163635254 -0.9479430913925171
3.0912938117980957 -0.7566657066345215 -0.9479430913925171
3.0912933349609375 -0.4864902198314667 -0.9479430913925171
3.0912935733795166 -0.21631479263305664 -0.9479430913925171
3.0912935733795166 0.05386066436767578 -0.9479430913925171
3.0912933349609375 0.3240361511707306 -0.9479430913925171
3.0912938117980957 0.5942115783691406 -0.9479430913925171
3.0912935733795166 0.864387035369873 -0.9479430913925171
1.6446382999420166 0.864387035369873 -0.7752266526222229
1.6446382999420166 0.5942115783691406 -0.7752267122268677
1.6446382999420166 0.3240361511707306 -0.7752265930175781
1.6446382999420166 0.05386066436767578 -0.7752266526222229
1.6446382999420166 -0.21631479263305664 -0.7752266526222229
1.6446382999420166 -0.4864902198314667 -0.7752265930175781
1.6446382999420166 -0.7566657066345215 -0.7752267122268677
1.6446382999420166 -1.026841163635254 -0.7752266526222229
1.6446382999420166 -1.2970166206359863 -0.7752266526222229
1.9339693784713745 -1.2970166206359863 -0.8097699284553528
2.2233004570007324 -1.2970166206359863 -0.8443132638931274
2.512631416320801 -1.2970166206359863 -0.8788565397262573
2.8019626140594482 -1.2970166206359863 -0.9133998155593872
1.93017578125 1.1345624923706055 -0.8415442705154419
2.2157132625579834 1.1345624923706055 -0.9078619480133057
2.501250982284546 1.1345624923706055 -0.9741795659065247
2.7867884635925293 1.1345624923706055 -1.0404973030090332
2.798168897628784 -1.2970166206359863 -0.9451741576194763
2.505044460296631 -1.2970166206359863 -0.9424052238464355
2.2119197845458984 -1.2970166206359863 -0.9396363496780396
1.918795108795166 -1.2970166206359863 -0.936867356300354
1.6425307989120483 -1.026841163635254 -0.7928791046142578
1.64042329788208 -0.7566657066345215 -0.810531497001648
1.6383156776428223 -0.4864902198314667 -0.8281838893890381
1.636208176612854 -0.21631479263305664 -0.8458362817764282
1.6341006755828857 0.05386066436767578 -0.8634887337684631
1.6319931745529175 0.3240361511707306 -0.881141185760498
1.6298855543136597 0.5942115783691406 -0.8987935781478882
1.6277780532836914 0.864387035369873 -0.9164459705352783
3.089186191558838 0.864387035369873 -0.9655954837799072
3.08707857131958 0.5942115783691406 -0.9832479357719421
3.0849709510803223 0.3240361511707306 -1.000900387763977
3.0828633308410645 0.05386066436767578 -1.0185527801513672
3.080756187438965 -0.21631479263305664 -1.0362051725387573
3.078648567199707 -0.4864902198314667 -1.0538575649261475
3.076540946960449 -0.7566657066345215 -1.0715100765228271
3.0744333267211914 -1.026841163635254 -1.0891624689102173
4.080143928527832 -1.2970166206359863 -1.2088745832443237
3.8281893730163574 -1.2970166206359863 -1.1833596229553223
3.576234817504883 -1.2970166206359863 -1.1578447818756104
3.324280261993408 -1.2970166206359863 -1.1323298215866089
3.0723257064819336 -1.2970166206359863 -1.1068148612976074
3.0723257064819336 -1.026841163635254 -1.1068148612976074
3.0723257064819336 -0.7566657066345215 -1.1068148612976074
3.0723257064819336 -0.4864902198314667 -1.1068148612976074
3.0723257064819336 -0.21631479263305664 -1.1068148612976074
3.0723257064819336 0.05386066436767578 -1.1068148612976074
3.0723257064819336 0.3240361511707306 -1.1068148612976074
3.0723257064819336 0.5942115783691406 -1.1068148612976074
3.0723257064819336 0.864387035369873 -1.1068148612976074
3.0723257064819336 1.1345624923706055 -1.1068148612976074
3.173107385635376 0.8914045691490173 -1.117020845413208
3.2738893032073975 0.6482466459274292 -1.1272268295288086
3.374671220779419 0.40508875250816345 -1.1374328136444092
3.4754528999328613 0.1619308590888977 -1.1476387977600098
3.576234817504883 -0.08122706413269043 -1.1578447818756104
3.677016496658325 -0.32438498735427856 -1.168050765991211
3.777798652648926 -0.5675429105758667 -1.178256630897522
3.878580093383789 -0.8107007741928101 -1.1884626150131226
3.9793622493743896 -1.053858757019043 -1.1986687183380127
3.324280261993408 1.1345624923706055 -1.1323298215866089
3.576234817504883 1.1345624923706055 -1.1578447818756104
3.8281893730163574 1.1345624923706055 -1.1833596229553223
4.080143928527832 1.1345624923706055 -1.2088745832443237
4.080143928527832 0.864387035369873 -1.2088745832443237
4.080143928527832 0.5942115783691406 -1.2088745832443237
4.080143928527832 0.3240361511707306 -1.2088745832443237
4.080143928527832 0.05386066436767578 -1.2088745832443237
4.080143928527832 -0.21631479263305664 -1.2088745832443237
4.080143928527832 -0.4864902198314667 -1.2088745832443237
4.080143928527832 -0.7566657066345215 -1.2088745832443237
4.080143928527832 -1.026841163635254 -1.2088745832443237
4.096264362335205 1.1345624923706055 -1.0496888160705566
3.8443098068237305 1.1345624923706055 -1.0241738557815552
3.592355251312256 1.1345624923706055 -0.9986588954925537
3.3404006958007812 1.1345624923706055 -0.973143994808197
3.0884461402893066 1.1345624923706055 -0.9476290345191956
3.189228057861328 0.8914045691490173 -0.9578350186347961
3.2900099754333496 0.6482466459274292 -0.9680410027503967
3.390791416168213 0.40508875250816345 -0.9782469868659973
3.4915733337402344 0.1619308590888977 -0.9884529113769531
3.592355251312256 -0.08122706413269043 -0.9986588954925537
3.6931371688842773 -0.32438498735427856 -1.0088648796081543
3.793919086456299 -0.5675429105758667 -1.0190708637237549
3.894700527191162 -0.8107007741928101 -1.0292768478393555
3.9954824447631836 -1.053858757019043 -1.039482831954956
4.096264362335205 -1.2970166206359863 -1.0496888160705566
4.096264362335205 -1.026841163635254 -1.0496888160705566
4.096264362335205 -0.7566657066345215 -1.0496888160705566
4.096264362335205 -0.4864902198314667 -1.0496888160705566
4.096264362335205 -0.21631479263305664 -1.0496888160705566
4.096264362335205 0.05386066436767578 -1.0496888160705566
4.096264362335205 0.3240361511707306 -1.0496888160705566
4.096264362335205 0.5942115783691406 -1.0496888160705566
4.096264362335205 0.864387035369873 -1.0496888160705566
3.0884461402893066 0.864387035369873 -0.9476289749145508
3.0884461402893066 0.5942115783691406 -0.9476290345191956
3.0884461402893066 0.3240361511707306 -0.9476289749145508
3.0884461402893066 0.05386066436767578 -0.9476290345191956
3.0884461402893066 -0.21631479263305664 -0.9476290345191956
3.0884461402893066 -0.4864902198314667 -0.9476289749145508
3.0884461402893066 -0.7566657066345215 -0.9476290345191956
3.0884461402893066 -1.026841163635254 -0.9476289749145508
3.0884461402893066 -1.2970166206359863 -0.9476290345191956
3.3404006958007812 -1.2970166206359863 -0.973143994808197
3.592355251312256 -1.2970166206359863 -0.9986588954925537
3.8443098068237305 -1.2970166206359863 -1.0241738557815552
3.3363707065582275 1.1345624923706055 -1.0129404067993164
3.5842950344085693 1.1345624923706055 -1.078251838684082
3.8322196006774902 1.1345624923706055 -1.143563151359558
3.8402798175811768 -1.2970166206359863 -1.0639703273773193
3.5842950344085693 -1.2970166206359863 -1.078251838684082
3.328310489654541 -1.2970166206359863 -1.0925333499908447
3.0866551399230957 -1.026841163635254 -0.9653162956237793
3.0848639011383057 -0.7566657066345215 -0.9830036759376526
3.0830726623535156 -0.4864902198314667 -1.0006909370422363
3.0812814235687256 -0.21631479263305664 -1.0183782577514648
3.0794904232025146 0.05386066436767578 -1.0360655784606934
3.0776991844177246 0.3240361511707306 -1.0537528991699219
3.0759081840515137 0.5942115783691406 -1.0714402198791504
3.0741167068481445 0.864387035369873 -1.089127540588379
4.094472885131836 0.864387035369873 -1.0673761367797852
4.092681884765625 0.5942115783691406 -1.0850634574890137
4.090890884399414 0.3240361511707306 -1.1027507781982422
4.089099884033203 0.05386066436767578 -1.1204380989074707
4.087308406829834 -0.21631479263305664 -1.1381254196166992
4.085517406463623 -0.4864902198314667 -1.1558126211166382
4.083725929260254 -0.7566657066345215 -1.1734999418258667
4.081934928894043 -1.026841163635254 -1.1911872625350952
3.0723259449005127 -1.2970166206359863 -1.1068150997161865
3.0993826389312744 -1.2970166206359863 -0.8520202040672302
3.1264395713806152 -1.2970166206359863 -0.5972253084182739
3.153496265411377 -1.2970166206359863 -0.34243044257164
3.1805529594421387 -1.2970166206359863 -0.0876355767250061
3.2076098918914795 -1.2970166206359863 0.1671593189239502
3.2346668243408203 -1.2970166206359863 0.4219541847705841
3.261723518371582 -1.2970166206359863 0.676749050617218
3.2887802124023438 -1.2970166206359863 0.9315440058708191
3.3158371448516846 -1.2970166206359863 1.1863387823104858
3.3428938388824463 -1.2970166206359863 1.441133737564087
3.3428940773010254 -1.026841163635254 1.441133737564087
3.3428938388824463 -0.7566657066345215 1.441133737564087
3.3428940773010254 -0.4864902198314667 1.441133737564087
